0.730815 0.73057 0.73092 0.731065 0.732513 0.736303 0.749427 0.76795 0.773557 0.777202 0.780502 0.782397 0.782632 0.777863 0.760566 0.734004 0.715807 0.706777 0.697913 0.691669 0.688878 0.684758 0.679987 0.675936 0.673953 0.669849 0.661057 0.650522 0.63572 0.616028 0.60277 0.596931 0.593153 0.590045 0.588135 0.585449 0.583481 0.58386 0.579596 0.569907 0.569325 0.566217 0.566401 0.567245 0.566378 0.567101 0.594839 0.653617 0.651221 0.626291 0.605068 0.601428 0.635879 0.660139 0.633757 0.599669 0.586 0.57743 0.571287 0.575193 0.563702 0.560485 0.559644 0.554824 0.551354 0.547237 0.54582 0.542519 0.540281 0.540971 0.541656 0.54109 0.542485 0.544503 0.545536 0.562427 0.624727 0.638703 0.617129 0.560242 0.558003 0.562682 0.59751 0.638232 0.642261 0.642642 0.641777 0.642484 0.641704 0.641878 0.641131 0.642226 0.641846 0.640963 0.641509 0.641854 0.640993 0.641012 0.640791 0.640449 0.639372 0.639071 0.638044 0.637314 0.636778 0.636439 0.636358 0.635814 0.635487 0.635125 0.633901 0.632398 0.632868 0.632643 0.63179 0.631822 0.632342 0.632268 0.632418 0.632748 0.631639 0.631369 0.630779 0.629482 0.632355 0.632043 0.630042 0.627478 0.624204 0.621228 0.619785 0.61833 0.616038 0.614319 0.613152 0.610029 0.607892 0.60645 0.605191 0.603932 0.602804 0.600981 0.598091 0.595516 0.593442 0.592502 0.591228 0.589133 0.586951 0.585147 0.582213 0.579418 0.577218 0.575477 0.57462 0.573403 0.571341 0.569187 0.566054 0.562898 0.561401 0.560806 0.559788 0.557441 0.55599 0.556335 0.554337 0.551816 0.549845 0.548076 0.54565 0.545447 0.546265 0.543859 0.541419 0.538751 0.535513 0.533415 0.530369 0.527985 0.526984 0.526612 0.526699 0.538563 0.551179 0.558127 0.563178 0.557436 0.552369 0.52324 0.519774 0.518884 0.520787 0.521597 0.539305 0.552829 0.538873 0.575185 0.539666 0.546381 0.58753 0.593058 0.592281 0.606459 0.608254 0.612212 0.612225 0.612207 0.609537 0.608006 0.606542 0.602927 0.594949 0.569984 0.552615 0.532102 0.515967 0.496042 0.479854 0.465994 0.45648 0.445894 0.43784 0.432153 0.428391 0.422306 0.416733 0.411081 0.405999 0.401703 0.392651 0.389018 0.387671 0.389808 0.392044 0.393046 0.391222 0.38931 0.388279 0.386859 0.385625 0.384955 0.383868 0.382164 0.380549 0.38031 0.379375 0.378951 0.378561 0.37718 0.375583 0.374233 0.373448 0.372015 0.370937 0.370403
0.733086 0.733111 0.733212 0.733564 0.7345 0.736407 0.739331 0.743909 0.755696 0.769719 0.781613 0.783319 0.783291 0.778026 0.765383 0.745986 0.729529 0.71495 0.700963 0.693929 0.689457 0.684808 0.681324 0.676179 0.673988 0.665821 0.658139 0.653048 0.640879 0.617253 0.605492 0.598872 0.594393 0.594065 0.591921 0.591175 0.590019 0.596933 0.595764 0.574371 0.573793 0.569964 0.569618 0.570217 0.570473 0.568405 0.595612 0.664615 0.65116 0.643741 0.610308 0.611713 0.644694 0.65098 0.614913 0.594349 0.586059 0.585269 0.578716 0.573578 0.567354 0.564857 0.56244 0.557995 0.552677 0.549829 0.54778 0.546281 0.544431 0.544781 0.544991 0.545207 0.546138 0.54631 0.548859 0.556157 0.606777 0.641673 0.623819 0.585142 0.566719 0.573801 0.588431 0.640804 0.643296 0.643669 0.642651 0.643314 0.64268 0.643297 0.642936 0.643158 0.642946 0.642664 0.642406 0.642319 0.641723 0.641395 0.641427 0.64094 0.639967 0.639539 0.638777 0.637614 0.637321 0.637177 0.63665 0.636443 0.636017 0.635394 0.634201 0.632977 0.632502 0.632599 0.631432 0.631411 0.632158 0.632943 0.632807 0.634143 0.63174 0.630961 0.630498 0.630536 0.633304 0.633153 0.631021 0.628223 0.625164 0.623118 0.621686 0.61949 0.617379 0.616116 0.61406 0.611093 0.609471 0.608572 0.606927 0.606097 0.605056 0.602844 0.599961 0.598053 0.595769 0.594876 0.593192 0.590591 0.58869 0.586742 0.583958 0.58133 0.579047 0.577823 0.577315 0.57509 0.574391 0.570804 0.566868 0.564838 0.564012 0.562703 0.561237 0.559338 0.55915 0.558225 0.557351 0.554706 0.551878 0.550044 0.548468 0.549001 0.548698 0.547024 0.544099 0.541405 0.537229 0.535765 0.533248 0.531104 0.530118 0.530177 0.531005 0.530988 0.541641 0.556535 0.567863 0.570943 0.569967 0.538306 0.523441 0.521265 0.523689 0.526395 0.53026 0.562708 0.553885 0.555284 0.57228 0.556251 0.571038 0.597507 0.606159 0.61003 0.612379 0.61366 0.614475 0.613517 0.612647 0.610737 0.606096 0.600666 0.588802 0.576155 0.566535 0.540584 0.522764 0.504819 0.491997 0.479678 0.466927 0.45749 0.45309 0.442117 0.444582 0.439165 0.43411 0.428522 0.425089 0.410845 0.407865 0.394014 0.391907 0.393469 0.396561 0.394827 0.393084 0.391244 0.390327 0.389504 0.388478 0.387183 0.386174 0.384448 0.383881 0.382486 0.381539 0.38108 0.380387 0.378723 0.377324 0.375797 0.374904 0.373497 0.372859 0.371797
0.735785 0.737518 0.741461 0.746198 0.742462 0.740973 0.742506 0.745598 0.748759 0.762083 0.780575 0.783974 0.783968 0.782129 0.775648 0.767598 0.74548 0.723256 0.708704 0.69929 0.693621 0.686526 0.681759 0.675803 0.666449 0.660412 0.651427 0.639972 0.629272 0.615008 0.60722 0.602125 0.599639 0.596986 0.596428 0.596743 0.60109 0.619501 0.590625 0.577215 0.575729 0.574053 0.573523 0.574204 0.575458 0.573994 0.607555 0.667224 0.659114 0.64063 0.617262 0.611834 0.653136 0.627664 0.605028 0.597362 0.595471 0.592948 0.587124 0.577341 0.572718 0.568264 0.563918 0.559148 0.557268 0.553834 0.55113 0.550598 0.548195 0.547995 0.548422 0.548722 0.55006 0.549677 0.551714 0.56035 0.584398 0.628002 0.641219 0.612248 0.584267 0.572337 0.588768 0.636704 0.644866 0.645025 0.643662 0.644129 0.644357 0.644433 0.644073 0.644224 0.644115 0.643719 0.64303 0.643142 0.642362 0.642186 0.642045 0.641369 0.640733 0.639981 0.639702 0.638834 0.63819 0.637786 0.637359 0.637058 0.636762 0.636098 0.635226 0.633685 0.633015 0.632106 0.631329 0.631417 0.631445 0.632435 0.63276 0.635326 0.632711 0.6309 0.631193 0.631123 0.634224 0.634051 0.632012 0.629599 0.626688 0.625375 0.623544 0.62141 0.619615 0.617378 0.614598 0.612191 0.611158 0.610293 0.60921 0.608213 0.607054 0.6045 0.6018 0.599955 0.598966 0.597015 0.594501 0.59183 0.590572 0.588132 0.585512 0.582879 0.58173 0.580913 0.579021 0.577968 0.575188 0.571856 0.568757 0.567521 0.566647 0.564781 0.563595 0.562362 0.561757 0.561472 0.559406 0.55597 0.553795 0.553824 0.550911 0.551357 0.550995 0.549305 0.546959 0.542512 0.540656 0.53889 0.536306 0.532513 0.533423 0.535539 0.535102 0.533995 0.537516 0.547318 0.562203 0.575328 0.576594 0.556465 0.53027 0.52399 0.525126 0.527721 0.531197 0.541668 0.574763 0.56534 0.573574 0.578183 0.591267 0.607115 0.610636 0.613377 0.61401 0.614963 0.615291 0.614402 0.612929 0.610108 0.603067 0.598493 0.593269 0.589892 0.583675 0.573375 0.565181 0.541886 0.540102 0.524961 0.492672 0.482569 0.479934 0.484038 0.469426 0.476587 0.462086 0.443535 0.430673 0.420613 0.404833 0.395526 0.395981 0.399066 0.398748 0.396425 0.395308 0.393436 0.393148 0.392036 0.390592 0.389972 0.387857 0.386711 0.385878 0.384816 0.38376 0.382801 0.381949 0.380673 0.378939 0.377364 0.376977 0.375477 0.374086 0.37343
0.737379 0.738064 0.740572 0.747348 0.758351 0.762076 0.762526 0.768984 0.774928 0.778536 0.783585 0.78478 0.783986 0.780055 0.760856 0.761204 0.747584 0.727623 0.716286 0.703883 0.695421 0.686042 0.680999 0.673523 0.669474 0.65303 0.64591 0.634584 0.623419 0.616927 0.61016 0.605835 0.60559 0.603301 0.605479 0.606626 0.614196 0.618541 0.592313 0.580057 0.579162 0.576891 0.577955 0.577969 0.579317 0.578886 0.590121 0.662334 0.662439 0.654657 0.623363 0.621158 0.650432 0.613023 0.608184 0.604751 0.605812 0.599626 0.587729 0.58197 0.575084 0.571813 0.568201 0.561979 0.560011 0.556546 0.554249 0.553507 0.553265 0.551907 0.550985 0.554118 0.552823 0.553716 0.556235 0.560093 0.580781 0.620306 0.642445 0.633823 0.598939 0.575886 0.587466 0.632703 0.645806 0.647114 0.644908 0.645265 0.646225 0.645762 0.64518 0.645483 0.644498 0.644588 0.643847 0.643425 0.64307 0.643056 0.641879 0.641726 0.641369 0.64105 0.640161 0.639879 0.639059 0.638376 0.638105 0.637562 0.638225 0.637514 0.636179 0.634959 0.633787 0.632175 0.631411 0.631209 0.630891 0.632231 0.633289 0.635621 0.634223 0.632128 0.632209 0.633154 0.63533 0.635081 0.632879 0.6304 0.628824 0.627743 0.625367 0.623168 0.620704 0.617742 0.615366 0.613961 0.613312 0.612426 0.611183 0.60999 0.608294 0.60591 0.603439 0.602523 0.600832 0.59896 0.596119 0.593899 0.592329 0.589076 0.5869 0.585221 0.584154 0.582547 0.582027 0.580009 0.577422 0.573333 0.571118 0.570352 0.568976 0.567025 0.565903 0.565165 0.564711 0.564562 0.561647 0.558423 0.557084 0.557232 0.552695 0.554253 0.554544 0.551578 0.548625 0.545946 0.542736 0.54132 0.53697 0.53608 0.537454 0.539201 0.53924 0.537481 0.538738 0.549706 0.562146 0.579493 0.586008 0.581025 0.547416 0.528911 0.529793 0.531857 0.535076 0.538926 0.56616 0.587442 0.588316 0.595829 0.601141 0.610124 0.613425 0.614806 0.615852 0.61592 0.615706 0.614486 0.612183 0.606118 0.597217 0.586927 0.571744 0.572541 0.575815 0.574753 0.565036 0.556217 0.546369 0.534355 0.524172 0.515803 0.50353 0.496574 0.48019 0.468859 0.457557 0.440455 0.433777 0.413824 0.403439 0.400519 0.400948 0.402116 0.400021 0.398388 0.397028 0.39641 0.395631 0.394316 0.393519 0.392094 0.390362 0.389054 0.388314 0.387195 0.386097 0.384698 0.383716 0.382386 0.3804 0.379168 0.378427 0.377244 0.375818 0.375499
0.738653 0.741157 0.7458 0.749834 0.755939 0.764543 0.770178 0.775054 0.779506 0.782591 0.784458 0.785301 0.784064 0.773291 0.756526 0.735227 0.72091 0.714039 0.704695 0.6955 0.68942 0.681282 0.674991 0.666175 0.653481 0.646965 0.639445 0.631272 0.626531 0.621056 0.613964 0.61272 0.611688 0.611913 0.610418 0.614149 0.641143 0.636207 0.596397 0.58443 0.582233 0.581678 0.581744 0.58241 0.582041 0.583614 0.595712 0.661546 0.662342 0.653113 0.631334 0.631086 0.638071 0.616037 0.610449 0.613321 0.616729 0.608581 0.594572 0.585076 0.577728 0.575412 0.569244 0.565434 0.562863 0.558854 0.558476 0.557443 0.5564 0.556207 0.554632 0.556258 0.556409 0.557323 0.559456 0.562847 0.574319 0.594001 0.62614 0.643413 0.623801 0.588849 0.590286 0.624845 0.646167 0.648254 0.647068 0.646563 0.647666 0.646963 0.646334 0.646809 0.646231 0.644969 0.644583 0.643807 0.643497 0.643525 0.64252 0.641848 0.641734 0.641934 0.641559 0.640672 0.639748 0.639261 0.6388 0.638293 0.639238 0.638901 0.63786 0.636507 0.634922 0.632863 0.63213 0.631064 0.63053 0.63231 0.633108 0.633982 0.635667 0.63349 0.633526 0.635087 0.636427 0.635763 0.634139 0.631781 0.630994 0.629334 0.627085 0.624206 0.621015 0.618711 0.617224 0.616188 0.615537 0.614452 0.613118 0.612568 0.60964 0.607404 0.606309 0.604749 0.603153 0.600267 0.59765 0.596272 0.594025 0.591339 0.588674 0.587496 0.586407 0.585006 0.584199 0.581381 0.576998 0.574886 0.574006 0.572459 0.571194 0.569448 0.568593 0.56784 0.567755 0.567878 0.563754 0.560661 0.560539 0.560447 0.555723 0.557036 0.556402 0.555834 0.551671 0.5482 0.545225 0.542286 0.539661 0.539083 0.54115 0.541631 0.543637 0.545606 0.541604 0.544148 0.554094 0.567953 0.589438 0.592045 0.566768 0.531829 0.53117 0.533497 0.536223 0.54054 0.550054 0.590467 0.600536 0.606908 0.609329 0.612633 0.614469 0.615662 0.615975 0.615932 0.615494 0.613433 0.61068 0.601376 0.584461 0.568007 0.551859 0.538996 0.539761 0.547694 0.557281 0.536757 0.531817 0.535862 0.531526 0.505216 0.498068 0.494062 0.486346 0.480058 0.472358 0.457739 0.441154 0.414516 0.404407 0.405151 0.405451 0.404146 0.40169 0.400882 0.399604 0.399395 0.397853 0.396895 0.39565 0.394253 0.39303 0.391615 0.39029 0.389112 0.387857 0.386396 0.385565 0.383657 0.381906 0.380612 0.380027 0.378028 0.377711 0.376985
0.740235 0.741438 0.745066 0.750722 0.757518 0.76397 0.770582 0.775804 0.779636 0.782692 0.784827 0.78565 0.785059 0.781253 0.768632 0.742261 0.71982 0.711226 0.704071 0.695307 0.689811 0.683021 0.674545 0.66324 0.656821 0.644929 0.636796 0.633039 0.628098 0.622467 0.618634 0.620188 0.617306 0.617449 0.619383 0.64773 0.663826 0.632022 0.605405 0.587048 0.585826 0.585196 0.585964 0.586909 0.587495 0.588911 0.609921 0.667734 0.66114 0.64871 0.64062 0.648893 0.633246 0.619683 0.617996 0.625202 0.636154 0.626522 0.603668 0.584689 0.580888 0.577627 0.573539 0.569342 0.566195 0.563454 0.561536 0.560082 0.560187 0.559305 0.559436 0.560986 0.55873 0.558743 0.561041 0.564812 0.573522 0.586744 0.630835 0.645728 0.639384 0.59964 0.599581 0.633588 0.647893 0.649402 0.649004 0.648213 0.648736 0.647862 0.64792 0.647933 0.647077 0.645207 0.645461 0.644683 0.644145 0.644045 0.643272 0.642553 0.64276 0.642614 0.642465 0.641448 0.641012 0.640181 0.639529 0.639394 0.640329 0.640465 0.639791 0.63797 0.636664 0.633516 0.634184 0.632349 0.6304 0.631127 0.631788 0.633725 0.635879 0.634655 0.635864 0.636199 0.637415 0.636639 0.634898 0.633269 0.632771 0.631294 0.628319 0.624667 0.622046 0.620474 0.619554 0.61873 0.617616 0.616347 0.615594 0.613319 0.61141 0.609738 0.608512 0.606683 0.604127 0.601636 0.599926 0.597763 0.595076 0.59251 0.591442 0.590176 0.589345 0.587556 0.585463 0.581226 0.57892 0.577458 0.576285 0.574835 0.573456 0.572057 0.570917 0.571376 0.571469 0.568966 0.565348 0.563367 0.564177 0.564645 0.556667 0.559352 0.559947 0.557135 0.553314 0.550828 0.547551 0.544273 0.542172 0.542524 0.544296 0.545162 0.552931 0.555283 0.554137 0.546507 0.55233 0.56322 0.578719 0.596887 0.591932 0.536466 0.536587 0.538396 0.539344 0.542093 0.547443 0.560919 0.587844 0.607778 0.612704 0.61446 0.615522 0.615568 0.616063 0.615847 0.614032 0.611799 0.609299 0.602335 0.590824 0.565911 0.545899 0.529669 0.519644 0.515103 0.513437 0.507954 0.498207 0.502638 0.496171 0.507506 0.471616 0.4676 0.463819 0.463739 0.446235 0.446914 0.417687 0.409427 0.408746 0.40879 0.408009 0.406287 0.404732 0.403662 0.402952 0.401391 0.400679 0.39897 0.398208 0.397448 0.395235 0.394432 0.39294 0.3912 0.389725 0.388034 0.386901 0.385343 0.383657 0.382235 0.381582 0.379611 0.379262 0.378546
0.740446 0.741801 0.743529 0.744877 0.747939 0.752601 0.76134 0.770456 0.778022 0.782578 0.785025 0.785822 0.784418 0.777945 0.760931 0.737049 0.726579 0.715574 0.708047 0.701809 0.693723 0.686551 0.681006 0.667774 0.659786 0.645702 0.640778 0.637731 0.632931 0.626324 0.622042 0.624131 0.624265 0.625247 0.62422 0.674312 0.669244 0.636914 0.60874 0.589616 0.58913 0.589542 0.590415 0.590904 0.591032 0.592916 0.612512 0.666921 0.663685 0.656083 0.654919 0.652795 0.628796 0.623934 0.627888 0.643984 0.650453 0.622559 0.593199 0.587103 0.584017 0.581016 0.575706 0.572115 0.569181 0.566646 0.56495 0.564875 0.562584 0.563716 0.562836 0.563393 0.563625 0.562811 0.56335 0.566779 0.571983 0.582172 0.606334 0.64672 0.644194 0.62973 0.610705 0.645625 0.65089 0.650984 0.649868 0.649534 0.649856 0.64893 0.649134 0.648797 0.648224 0.646108 0.646165 0.645216 0.644972 0.644145 0.644142 0.643173 0.643334 0.643734 0.64297 0.642391 0.64153 0.641289 0.64084 0.640774 0.641211 0.642412 0.641754 0.640389 0.639594 0.636472 0.637025 0.633602 0.6312 0.631535 0.632046 0.634095 0.636561 0.636011 0.637351 0.638189 0.638598 0.637794 0.635364 0.63529 0.634889 0.632223 0.629706 0.625979 0.623453 0.62352 0.622263 0.621142 0.620146 0.618975 0.617388 0.615446 0.613443 0.611969 0.610379 0.608299 0.605347 0.603657 0.601419 0.598906 0.596617 0.595035 0.594383 0.593079 0.591445 0.5894 0.587158 0.583342 0.581225 0.580215 0.578198 0.577318 0.575557 0.574732 0.574142 0.574535 0.574106 0.570777 0.568433 0.565707 0.569056 0.569238 0.559081 0.560462 0.562118 0.559816 0.555777 0.552642 0.550103 0.546701 0.545875 0.545673 0.54726 0.547888 0.554561 0.564093 0.565679 0.557457 0.557747 0.572157 0.583425 0.598921 0.590406 0.54613 0.537906 0.540441 0.549524 0.547879 0.553688 0.561444 0.588952 0.607266 0.614127 0.615514 0.61528 0.615914 0.615298 0.613991 0.61287 0.607845 0.602886 0.600903 0.596404 0.580582 0.565452 0.533352 0.5127 0.5025 0.493357 0.487135 0.479625 0.472872 0.472896 0.461392 0.459228 0.448194 0.441029 0.440941 0.431356 0.419388 0.414341 0.411393 0.41248 0.411918 0.410352 0.408691 0.407725 0.406668 0.405828 0.404847 0.403845 0.402151 0.400965 0.398777 0.397614 0.39637 0.394065 0.392893 0.391285 0.389437 0.388119 0.387067 0.385469 0.384002 0.3831 0.38174 0.380932 0.380063
0.740648 0.742296 0.744293 0.746174 0.748805 0.754756 0.764768 0.773023 0.778937 0.782861 0.78502 0.785794 0.785372 0.782187 0.775115 0.7603 0.75194 0.74163 0.726452 0.721511 0.704126 0.696135 0.680043 0.668724 0.657485 0.652533 0.647325 0.642486 0.63407 0.630197 0.629594 0.629567 0.630125 0.632194 0.632467 0.676383 0.669998 0.648331 0.601263 0.59434 0.593141 0.594024 0.594376 0.594296 0.595422 0.598478 0.617642 0.668425 0.665437 0.662954 0.660084 0.641103 0.63163 0.629851 0.638234 0.652446 0.635351 0.607308 0.593193 0.58922 0.585496 0.582704 0.578706 0.57582 0.572672 0.570757 0.570054 0.568156 0.566862 0.566478 0.568137 0.567294 0.56859 0.564549 0.566366 0.56959 0.572826 0.589977 0.628819 0.639848 0.649075 0.639433 0.622217 0.642617 0.652808 0.652684 0.651391 0.650657 0.651168 0.650724 0.650205 0.64898 0.649395 0.647284 0.646866 0.646103 0.645792 0.645092 0.645402 0.644886 0.644802 0.644435 0.643937 0.643175 0.642477 0.642408 0.642468 0.641637 0.642445 0.64382 0.643732 0.642714 0.642643 0.640101 0.639077 0.636044 0.632175 0.631569 0.633616 0.633672 0.636177 0.637227 0.637957 0.63993 0.639785 0.639151 0.636044 0.637145 0.636459 0.634574 0.630098 0.627974 0.626203 0.625785 0.624793 0.623314 0.622113 0.621412 0.619358 0.616984 0.616189 0.614074 0.612393 0.609867 0.607095 0.605008 0.602951 0.601162 0.599217 0.598085 0.596664 0.595144 0.59309 0.590685 0.587475 0.58502 0.583403 0.581484 0.581006 0.579662 0.578435 0.57728 0.577533 0.578317 0.575941 0.573041 0.569347 0.568011 0.571974 0.571446 0.562766 0.564916 0.565369 0.562327 0.557619 0.555973 0.552369 0.550192 0.550372 0.549795 0.549778 0.550624 0.555332 0.568619 0.570312 0.573961 0.565704 0.579488 0.590259 0.601568 0.601749 0.557807 0.541893 0.544467 0.560286 0.55411 0.553284 0.567807 0.613041 0.614315 0.614453 0.615606 0.615614 0.615144 0.614026 0.607895 0.604946 0.595406 0.586608 0.58553 0.584735 0.591879 0.577741 0.549117 0.527284 0.502331 0.489163 0.478321 0.470512 0.462193 0.456469 0.452595 0.44536 0.44034 0.434953 0.428382 0.423266 0.418241 0.416078 0.415283 0.415248 0.414964 0.413434 0.412589 0.410571 0.409978 0.408129 0.407664 0.405741 0.404681 0.402887 0.401405 0.399585 0.397875 0.396088 0.394212 0.392915 0.39121 0.389708 0.388541 0.387004 0.385836 0.38478 0.383367 0.382291 0.381371
0.739738 0.742394 0.744898 0.748957 0.754628 0.760087 0.765336 0.773428 0.779122 0.782531 0.784487 0.785542 0.785285 0.783149 0.777574 0.765062 0.755461 0.733147 0.720903 0.707283 0.698542 0.688356 0.679979 0.673077 0.667251 0.664358 0.659627 0.647713 0.636993 0.633664 0.632942 0.63457 0.635025 0.639128 0.646128 0.675102 0.674988 0.639246 0.602646 0.598085 0.596667 0.596464 0.59712 0.598665 0.598803 0.603284 0.627201 0.669672 0.668113 0.66537 0.654978 0.641112 0.636127 0.637973 0.652071 0.638972 0.623085 0.601851 0.594547 0.591256 0.589132 0.585892 0.581582 0.57849 0.576132 0.575375 0.573458 0.571341 0.570943 0.570765 0.572197 0.571786 0.584524 0.570329 0.570279 0.571887 0.576918 0.594603 0.64114 0.651684 0.650809 0.649456 0.64688 0.649296 0.654864 0.654766 0.652859 0.652322 0.651842 0.652163 0.651107 0.650552 0.649764 0.64861 0.647727 0.647133 0.646701 0.646157 0.64596 0.646353 0.645852 0.645574 0.64489 0.644293 0.643784 0.643358 0.643813 0.643713 0.643112 0.644164 0.645949 0.645105 0.644114 0.643826 0.641863 0.63809 0.63515 0.635388 0.635723 0.633522 0.636764 0.638225 0.638657 0.641294 0.641234 0.639791 0.63765 0.638946 0.638492 0.634907 0.631842 0.629923 0.629637 0.62834 0.626954 0.6257 0.624402 0.62276 0.620573 0.619417 0.617934 0.616146 0.613907 0.611091 0.608935 0.607454 0.60504 0.602777 0.601299 0.600756 0.599258 0.597597 0.594558 0.591694 0.589267 0.587317 0.586138 0.584756 0.583334 0.582485 0.580925 0.58029 0.581906 0.580136 0.577546 0.573385 0.572452 0.572067 0.576223 0.574916 0.562942 0.567076 0.56806 0.565272 0.560377 0.558083 0.555164 0.55377 0.554107 0.552808 0.553911 0.5542 0.555547 0.561362 0.572147 0.581189 0.585668 0.580371 0.591822 0.604374 0.61024 0.569935 0.544976 0.546087 0.571006 0.57996 0.560866 0.577776 0.610777 0.614859 0.615409 0.615225 0.614637 0.614993 0.612011 0.601959 0.589031 0.580316 0.565558 0.562951 0.56146 0.55515 0.580803 0.571062 0.551129 0.533369 0.494286 0.48017 0.471085 0.46097 0.454172 0.447314 0.443459 0.438088 0.432503 0.426963 0.423981 0.421079 0.420032 0.419405 0.419208 0.418129 0.416556 0.414663 0.413907 0.413327 0.411489 0.409318 0.407546 0.405504 0.403553 0.402047 0.39989 0.398634 0.397306 0.395622 0.394137 0.392556 0.39108 0.39016 0.388949 0.387587 0.386461 0.38469 0.383761 0.383012
0.73857 0.742137 0.746041 0.750369 0.757438 0.765374 0.762062 0.769567 0.774224 0.780457 0.782753 0.784974 0.784855 0.783062 0.772338 0.753083 0.734008 0.71942 0.706555 0.699331 0.692422 0.686782 0.683879 0.679845 0.678311 0.669636 0.658226 0.644689 0.642706 0.638517 0.638735 0.641989 0.640857 0.64601 0.657187 0.678188 0.67657 0.624708 0.604543 0.601237 0.600619 0.60065 0.600467 0.60261 0.604916 0.607669 0.648352 0.669676 0.669427 0.663716 0.651332 0.643043 0.640111 0.653056 0.653667 0.633229 0.610369 0.600754 0.597247 0.595007 0.591873 0.587174 0.583595 0.5814 0.578949 0.57806 0.575751 0.574933 0.574836 0.574011 0.575653 0.575949 0.592453 0.573499 0.574329 0.575722 0.579596 0.588822 0.614773 0.63928 0.651819 0.653034 0.653216 0.651581 0.656287 0.655458 0.655899 0.653682 0.652755 0.653651 0.651975 0.65132 0.65056 0.650321 0.648196 0.648095 0.648015 0.647663 0.647257 0.647632 0.646973 0.646489 0.646019 0.64504 0.644408 0.643764 0.644547 0.644996 0.644538 0.645279 0.647006 0.647554 0.646502 0.646244 0.644465 0.64234 0.640034 0.637901 0.638167 0.635729 0.637766 0.639395 0.640006 0.642557 0.642827 0.641024 0.640313 0.641052 0.639271 0.636097 0.633871 0.633178 0.631882 0.630694 0.629119 0.627885 0.62639 0.624686 0.622758 0.621276 0.619868 0.617944 0.615123 0.612914 0.611508 0.608504 0.607086 0.605761 0.605017 0.603443 0.601174 0.598644 0.595206 0.593365 0.590743 0.590019 0.588506 0.587165 0.586028 0.584665 0.583746 0.583733 0.58444 0.58395 0.579674 0.57601 0.574966 0.576049 0.581686 0.58074 0.567021 0.570032 0.570335 0.567305 0.563256 0.560453 0.557289 0.558396 0.559665 0.557677 0.55676 0.557853 0.558958 0.564709 0.569127 0.576466 0.595069 0.596447 0.601661 0.608117 0.60992 0.572751 0.55123 0.550717 0.579858 0.589664 0.570419 0.590596 0.614101 0.615226 0.61523 0.612647 0.610854 0.613081 0.61168 0.6058 0.593717 0.572921 0.55552 0.540498 0.530413 0.530329 0.548947 0.566831 0.560278 0.549562 0.52857 0.505216 0.476538 0.465167 0.454062 0.447849 0.442768 0.437267 0.432444 0.428905 0.425542 0.425012 0.424405 0.423921 0.422434 0.421635 0.420162 0.418218 0.416461 0.414795 0.412371 0.41004 0.407856 0.405359 0.403747 0.40195 0.40014 0.398382 0.397355 0.395701 0.394343 0.394099 0.393047 0.391911 0.390686 0.389327 0.387997 0.386252 0.385145 0.384358
0.737011 0.739557 0.741089 0.73888 0.741463 0.744923 0.749257 0.755561 0.765514 0.774434 0.782908 0.784398 0.784343 0.781688 0.774787 0.757083 0.737015 0.72419 0.711046 0.6993 0.695014 0.690172 0.687942 0.684885 0.680207 0.673681 0.6587 0.651905 0.64713 0.644903 0.645915 0.647746 0.647816 0.652536 0.671323 0.679224 0.643932 0.612088 0.607601 0.605856 0.604585 0.60367 0.603692 0.604059 0.610518 0.612896 0.66521 0.672809 0.669903 0.662024 0.652955 0.647456 0.651318 0.659499 0.635936 0.625652 0.607981 0.604595 0.601602 0.598226 0.593439 0.589701 0.588214 0.585102 0.583329 0.581701 0.580134 0.577556 0.578402 0.577168 0.579499 0.578897 0.590087 0.591858 0.57605 0.578536 0.580739 0.584078 0.593781 0.612214 0.648872 0.655411 0.65604 0.657522 0.658296 0.657216 0.656988 0.655809 0.653725 0.65465 0.653522 0.65211 0.652532 0.650868 0.649794 0.649549 0.649169 0.649047 0.648615 0.648538 0.647403 0.646641 0.645853 0.645073 0.644181 0.644026 0.644192 0.644234 0.645556 0.645752 0.647138 0.649224 0.648586 0.648812 0.64741 0.64711 0.642881 0.64269 0.642438 0.639583 0.638537 0.639813 0.641104 0.643955 0.643686 0.642878 0.642821 0.642764 0.640522 0.638071 0.636041 0.63598 0.634611 0.632482 0.631642 0.630469 0.628055 0.626055 0.624799 0.623714 0.622094 0.619002 0.616459 0.614962 0.612779 0.61039 0.609269 0.608984 0.607106 0.604845 0.602212 0.599815 0.596932 0.594647 0.593361 0.592819 0.590888 0.589463 0.588312 0.587874 0.587431 0.58806 0.588001 0.586076 0.582453 0.578308 0.576685 0.580493 0.58666 0.583509 0.569364 0.572879 0.57296 0.570452 0.56636 0.562961 0.560535 0.562331 0.564277 0.561392 0.561314 0.561163 0.560628 0.571524 0.577559 0.577343 0.584223 0.600013 0.608247 0.612607 0.613453 0.589267 0.5546 0.553565 0.600314 0.602544 0.588131 0.613225 0.615378 0.614936 0.615138 0.606398 0.590739 0.603021 0.605735 0.60517 0.599896 0.58938 0.568267 0.534121 0.52212 0.51117 0.510988 0.527662 0.536708 0.542307 0.51732 0.535224 0.521612 0.485512 0.455647 0.445605 0.441896 0.437371 0.434427 0.431266 0.430045 0.430712 0.430361 0.427538 0.425694 0.424397 0.422028 0.419536 0.417058 0.415 0.412439 0.410511 0.408138 0.406278 0.403864 0.40165 0.400476 0.399011 0.397694 0.396964 0.395602 0.395786 0.394948 0.393789 0.392455 0.390841 0.389249 0.387919 0.386977 0.386211
0.731695 0.731641 0.732932 0.736104 0.73925 0.74326 0.748197 0.757719 0.773217 0.778145 0.780889 0.783299 0.783979 0.783076 0.779862 0.766134 0.751892 0.727082 0.710948 0.701339 0.697024 0.693421 0.691545 0.686878 0.683948 0.674888 0.662753 0.656791 0.656677 0.652113 0.651707 0.657219 0.657854 0.66982 0.679996 0.664784 0.626963 0.61373 0.610012 0.608816 0.608082 0.607546 0.608047 0.608757 0.612705 0.619711 0.674672 0.675176 0.67092 0.667049 0.659461 0.655115 0.662177 0.649169 0.631836 0.616621 0.612409 0.607387 0.602862 0.59997 0.596232 0.592986 0.590624 0.58765 0.58709 0.584255 0.583944 0.581075 0.5825 0.582147 0.582069 0.58413 0.591985 0.607665 0.580271 0.578976 0.586132 0.58864 0.592313 0.613545 0.643978 0.657417 0.659126 0.658754 0.66017 0.658388 0.657303 0.657601 0.655239 0.655367 0.655226 0.653525 0.653928 0.652134 0.651165 0.650828 0.650622 0.65017 0.649776 0.648672 0.647516 0.646068 0.645197 0.644542 0.644753 0.64413 0.644358 0.644411 0.644668 0.646212 0.648261 0.650273 0.651094 0.651349 0.65023 0.650449 0.647915 0.647376 0.646712 0.643105 0.64044 0.64083 0.641578 0.645315 0.645231 0.644664 0.644981 0.643885 0.642087 0.63946 0.638735 0.638323 0.636516 0.634948 0.634208 0.631495 0.630238 0.628612 0.627298 0.626054 0.623294 0.620846 0.618311 0.617011 0.614269 0.612515 0.612543 0.611443 0.609174 0.605674 0.603132 0.600394 0.598312 0.596542 0.595911 0.594976 0.593974 0.592565 0.592112 0.59049 0.5914 0.591129 0.589492 0.587268 0.5826 0.580562 0.580208 0.582407 0.590669 0.582081 0.572815 0.574373 0.575607 0.574432 0.57024 0.566042 0.564535 0.564817 0.56886 0.566008 0.565827 0.564347 0.564299 0.56834 0.582488 0.590058 0.592437 0.60255 0.610514 0.616042 0.617725 0.599967 0.558886 0.56066 0.615867 0.615664 0.608401 0.616669 0.615506 0.603591 0.599097 0.593898 0.567545 0.575309 0.593082 0.585457 0.592095 0.590296 0.56335 0.544745 0.515784 0.501488 0.497181 0.494546 0.509731 0.507691 0.487231 0.472931 0.464358 0.455388 0.449901 0.446378 0.442062 0.439704 0.437652 0.435667 0.435275 0.433276 0.432611 0.430109 0.427267 0.424662 0.422374 0.419693 0.417278 0.414915 0.412879 0.410761 0.408606 0.406578 0.405502 0.403217 0.40173 0.400713 0.399407 0.398996 0.397985 0.397391 0.39644 0.395456 0.393995 0.392222 0.390956 0.389511 0.388628 0.387916
0.727418 0.72893 0.73184 0.735587 0.740633 0.753355 0.761938 0.765342 0.767363 0.773293 0.777801 0.782177 0.783113 0.782699 0.780132 0.766742 0.751642 0.726442 0.712601 0.705476 0.699954 0.697762 0.694553 0.692298 0.686871 0.673699 0.673318 0.669376 0.661788 0.660508 0.664396 0.667883 0.670506 0.678735 0.679544 0.648189 0.619895 0.617006 0.613678 0.613245 0.612691 0.610725 0.611356 0.613619 0.616149 0.643149 0.676956 0.676134 0.673814 0.669439 0.66429 0.66511 0.663091 0.653772 0.631939 0.618544 0.614007 0.610369 0.607809 0.602544 0.598951 0.595033 0.593117 0.592127 0.58994 0.587749 0.585493 0.585321 0.584491 0.585632 0.58514 0.587379 0.594736 0.620776 0.583369 0.583121 0.586887 0.594578 0.600831 0.613092 0.636721 0.656341 0.660886 0.660574 0.661948 0.660939 0.659228 0.659532 0.658306 0.656928 0.656178 0.654757 0.655123 0.653964 0.652899 0.652609 0.651819 0.651255 0.65025 0.648341 0.647081 0.64673 0.646264 0.646211 0.645259 0.646117 0.646739 0.646092 0.645771 0.64684 0.648587 0.651194 0.651241 0.653669 0.653323 0.652613 0.652141 0.65269 0.651878 0.647272 0.644083 0.64233 0.643308 0.646985 0.646307 0.646379 0.646898 0.645091 0.644441 0.64184 0.641386 0.640133 0.638432 0.637347 0.636487 0.634245 0.632565 0.631162 0.629835 0.627711 0.624887 0.622083 0.620553 0.618009 0.61647 0.615822 0.61556 0.613164 0.609835 0.606707 0.604821 0.602234 0.600899 0.599084 0.598589 0.597212 0.596962 0.595252 0.594793 0.594236 0.593758 0.594106 0.592965 0.590102 0.58587 0.585236 0.583281 0.58786 0.596392 0.586236 0.574647 0.577538 0.579266 0.575823 0.573456 0.570399 0.569213 0.568682 0.573808 0.571488 0.572216 0.56879 0.566849 0.569525 0.578155 0.591508 0.605294 0.607889 0.615122 0.618781 0.619065 0.593774 0.565512 0.56857 0.617857 0.61725 0.61576 0.615448 0.606644 0.588819 0.577343 0.565351 0.557345 0.550892 0.553883 0.558453 0.556841 0.5713 0.559608 0.565372 0.518401 0.497111 0.490613 0.485037 0.479544 0.473188 0.468263 0.464313 0.459005 0.454537 0.450955 0.447869 0.444938 0.442953 0.442038 0.440082 0.438034 0.435695 0.433306 0.430606 0.428125 0.425673 0.423395 0.421068 0.418203 0.4159 0.414146 0.412343 0.410059 0.408237 0.406835 0.405402 0.404416 0.403182 0.401482 0.400249 0.399599 0.398822 0.398126 0.396696 0.395769 0.394198 0.39262 0.391381 0.390387 0.389176
0.725391 0.727368 0.731508 0.739364 0.745154 0.749507 0.746956 0.75194 0.760378 0.763209 0.771758 0.780378 0.782108 0.781972 0.780373 0.77272 0.752705 0.724469 0.724803 0.715415 0.71589 0.717159 0.707206 0.695744 0.683024 0.678888 0.677537 0.674046 0.674283 0.673264 0.672153 0.677458 0.677715 0.683239 0.670568 0.639864 0.623582 0.618431 0.618294 0.617858 0.615768 0.614443 0.614604 0.617002 0.619975 0.677521 0.678181 0.676847 0.675506 0.673752 0.66991 0.668892 0.654858 0.637252 0.627184 0.622383 0.616432 0.618738 0.624036 0.604821 0.600516 0.597672 0.597106 0.595493 0.59285 0.591814 0.588786 0.587539 0.588905 0.58824 0.588873 0.592733 0.604956 0.635313 0.589477 0.584136 0.589968 0.595796 0.619092 0.634698 0.645996 0.658459 0.66278 0.662932 0.664218 0.661518 0.661234 0.660153 0.660593 0.658738 0.657065 0.656269 0.656478 0.655935 0.654244 0.654014 0.652683 0.652116 0.650393 0.649375 0.649014 0.647846 0.647323 0.647085 0.645535 0.644134 0.6431 0.647159 0.647541 0.648041 0.648063 0.649453 0.651741 0.652898 0.654741 0.654921 0.655913 0.657805 0.654614 0.651903 0.648202 0.643863 0.644307 0.648607 0.648348 0.648428 0.648424 0.647271 0.646119 0.644413 0.643611 0.643027 0.640663 0.640059 0.638294 0.636655 0.634612 0.633791 0.631776 0.629246 0.626387 0.624259 0.622264 0.6206 0.619383 0.618559 0.617195 0.613795 0.610254 0.608506 0.60651 0.604432 0.603034 0.60185 0.601212 0.60014 0.598822 0.598115 0.597555 0.596409 0.597951 0.596746 0.594267 0.591875 0.588215 0.5899 0.588434 0.591925 0.597733 0.586083 0.578167 0.579171 0.582013 0.579778 0.576029 0.575052 0.573688 0.572863 0.576423 0.575935 0.577561 0.576381 0.572304 0.572511 0.582924 0.593556 0.605037 0.614698 0.619027 0.620622 0.606623 0.584382 0.572172 0.600109 0.618515 0.61837 0.617541 0.616813 0.610087 0.592159 0.574854 0.559174 0.548243 0.541484 0.536621 0.529378 0.528973 0.536706 0.541858 0.530676 0.538523 0.490648 0.485845 0.481577 0.476039 0.470698 0.466956 0.462341 0.459214 0.455582 0.45302 0.450031 0.448119 0.446672 0.444184 0.442087 0.438493 0.436232 0.433657 0.431391 0.428669 0.426549 0.424131 0.422077 0.419816 0.41808 0.415494 0.413026 0.41192 0.410005 0.407968 0.406442 0.404858 0.403525 0.402131 0.401305 0.400704 0.400117 0.399533 0.3983 0.397155 0.395611 0.394428 0.393063 0.391783 0.390877
0.722212 0.724239 0.728689 0.734151 0.737635 0.725751 0.730554 0.742953 0.737281 0.748713 0.763818 0.777398 0.780882 0.781547 0.780272 0.777255 0.767913 0.755493 0.745211 0.733035 0.720958 0.702863 0.6983 0.690671 0.686111 0.685574 0.683549 0.683044 0.679972 0.679328 0.679593 0.682085 0.682366 0.667823 0.659597 0.633113 0.624148 0.622696 0.622986 0.621517 0.620178 0.618357 0.618289 0.622779 0.623028 0.641096 0.67776 0.678118 0.676874 0.675818 0.673033 0.665547 0.650549 0.636723 0.628505 0.623975 0.626384 0.636482 0.627744 0.606154 0.603984 0.603422 0.600648 0.600182 0.59596 0.594587 0.59285 0.590984 0.590774 0.592565 0.593229 0.596313 0.606551 0.623393 0.592843 0.589784 0.590205 0.597102 0.611872 0.654556 0.660842 0.662435 0.66453 0.665033 0.665938 0.665295 0.663213 0.662446 0.662728 0.66132 0.658391 0.658062 0.658271 0.657721 0.656388 0.655273 0.65376 0.652743 0.651808 0.650688 0.650182 0.648696 0.647463 0.6457 0.643486 0.64141 0.639627 0.640518 0.649098 0.645816 0.645928 0.645697 0.645642 0.652138 0.654529 0.655015 0.656036 0.660014 0.661267 0.657447 0.653189 0.646746 0.645818 0.649913 0.649978 0.650044 0.650744 0.649284 0.647712 0.647024 0.646289 0.644716 0.643326 0.641899 0.640649 0.63904 0.637301 0.63559 0.633466 0.630389 0.628093 0.62659 0.623877 0.622593 0.621913 0.620915 0.617987 0.614886 0.612398 0.610419 0.608672 0.606956 0.605364 0.604763 0.603716 0.601862 0.601548 0.600462 0.599578 0.601167 0.600524 0.599968 0.596529 0.594621 0.592728 0.596407 0.593968 0.596517 0.602948 0.586163 0.579813 0.582612 0.584655 0.583866 0.581246 0.579373 0.577178 0.578219 0.578882 0.580462 0.584214 0.586675 0.578759 0.577725 0.583573 0.60157 0.612054 0.615617 0.623077 0.620496 0.606455 0.586904 0.588964 0.61898 0.619468 0.619137 0.618442 0.616447 0.612833 0.605412 0.58734 0.560508 0.546276 0.535614 0.526843 0.519647 0.517521 0.514643 0.507195 0.498878 0.493078 0.489162 0.48424 0.479974 0.474323 0.470431 0.466521 0.462991 0.459433 0.457051 0.455017 0.452378 0.450834 0.447583 0.44486 0.443 0.439821 0.437236 0.434322 0.432403 0.430145 0.427646 0.426044 0.423342 0.421127 0.418762 0.416463 0.41512 0.412715 0.410228 0.408303 0.406566 0.404995 0.403615 0.402819 0.40209 0.401433 0.40125 0.40112 0.399836 0.398607 0.397713 0.395965 0.394804 0.39355 0.392552
0.719527 0.721917 0.722231 0.721396 0.714641 0.714399 0.71926 0.723512 0.726404 0.733557 0.748672 0.761853 0.776219 0.780564 0.780665 0.777687 0.769775 0.757594 0.73967 0.720623 0.71135 0.700264 0.695463 0.693742 0.689783 0.689386 0.687879 0.684344 0.683515 0.682612 0.682646 0.684991 0.681012 0.665419 0.645047 0.6321 0.627929 0.626315 0.627464 0.626033 0.624254 0.621456 0.621434 0.624688 0.628089 0.64195 0.669021 0.677401 0.677268 0.677441 0.673935 0.669513 0.656549 0.63984 0.631524 0.633949 0.647788 0.649845 0.616475 0.609546 0.607787 0.605045 0.605413 0.603026 0.599285 0.597584 0.595796 0.59427 0.595592 0.595688 0.59699 0.599624 0.608158 0.622905 0.616796 0.593534 0.59581 0.599123 0.613791 0.657061 0.664942 0.665351 0.665681 0.666902 0.667482 0.667249 0.665981 0.665788 0.664169 0.663717 0.660303 0.659895 0.659835 0.65983 0.657726 0.656184 0.654834 0.653826 0.651921 0.649156 0.647944 0.647831 0.647646 0.651229 0.642354 0.640869 0.637615 0.635282 0.673501 0.64544 0.644601 0.645473 0.644603 0.647079 0.653178 0.6557 0.659005 0.662962 0.663394 0.660003 0.65833 0.651524 0.647437 0.652254 0.651625 0.651691 0.652127 0.651924 0.650176 0.649749 0.648744 0.647164 0.645497 0.643842 0.642052 0.640973 0.639609 0.637538 0.634526 0.632285 0.629794 0.627881 0.626784 0.625346 0.624957 0.621783 0.61951 0.616554 0.61429 0.612557 0.610801 0.609503 0.608425 0.607059 0.605816 0.60452 0.603817 0.602417 0.603399 0.604607 0.603122 0.60114 0.599006 0.597614 0.594089 0.598426 0.600455 0.601661 0.605726 0.591798 0.583363 0.58494 0.585999 0.587181 0.584441 0.583273 0.582401 0.581651 0.582884 0.585302 0.592489 0.592326 0.58981 0.583602 0.585941 0.598649 0.61742 0.623158 0.625652 0.623593 0.614223 0.605616 0.621358 0.621064 0.6205 0.61995 0.618314 0.616567 0.614032 0.608746 0.597621 0.574295 0.549034 0.529974 0.52396 0.51592 0.510532 0.506962 0.501038 0.495638 0.491403 0.48677 0.48308 0.479237 0.474861 0.471085 0.467748 0.464675 0.462108 0.45938 0.456742 0.453753 0.450488 0.448324 0.446265 0.443724 0.441163 0.438329 0.436563 0.434212 0.431383 0.428536 0.426085 0.423797 0.422146 0.419806 0.417769 0.415737 0.413743 0.411763 0.410084 0.408232 0.407074 0.405392 0.404323 0.402988 0.402593 0.402919 0.402632 0.401764 0.400335 0.399562 0.39791 0.396474 0.395434 0.394072
0.715723 0.713273 0.706714 0.701474 0.701668 0.707005 0.711037 0.71649 0.721536 0.734975 0.750636 0.770147 0.77664 0.779496 0.780115 0.779546 0.77567 0.756196 0.741356 0.725691 0.706612 0.701433 0.696911 0.694101 0.692349 0.689486 0.68689 0.685318 0.68064 0.682606 0.684478 0.685624 0.677303 0.659954 0.644533 0.635133 0.631097 0.631255 0.631403 0.630146 0.629435 0.625995 0.624759 0.62742 0.631067 0.635228 0.649515 0.672062 0.67834 0.678324 0.67686 0.672233 0.657967 0.643774 0.638912 0.648966 0.657318 0.637863 0.616455 0.6121 0.610198 0.609168 0.609315 0.607531 0.604369 0.600895 0.598436 0.598344 0.598351 0.598275 0.599102 0.60351 0.611185 0.623259 0.636042 0.596533 0.596989 0.601789 0.618997 0.645323 0.666233 0.667558 0.667151 0.667343 0.668774 0.669671 0.66898 0.668233 0.667493 0.665344 0.663222 0.662092 0.661528 0.661225 0.659125 0.657263 0.655725 0.653736 0.649923 0.648017 0.645817 0.644484 0.64221 0.666552 0.653014 0.638305 0.638278 0.637083 0.695287 0.6499 0.644966 0.643166 0.649693 0.646413 0.651145 0.655365 0.658839 0.660697 0.664206 0.665408 0.659899 0.653547 0.649548 0.653353 0.653706 0.653143 0.654543 0.653501 0.652271 0.652303 0.650904 0.649604 0.647457 0.645959 0.644543 0.642731 0.641513 0.639933 0.636569 0.633915 0.631955 0.629978 0.629282 0.628637 0.626693 0.622939 0.620534 0.618802 0.616432 0.615049 0.612886 0.612222 0.611043 0.608805 0.607065 0.606107 0.605609 0.605796 0.607487 0.60686 0.606504 0.603652 0.602172 0.59901 0.59788 0.600489 0.607087 0.605252 0.610365 0.596091 0.584996 0.587723 0.58865 0.589302 0.587851 0.585873 0.585757 0.585303 0.586614 0.587439 0.594093 0.598469 0.598305 0.594829 0.58839 0.596054 0.610154 0.625724 0.627064 0.626448 0.623932 0.624005 0.62377 0.622301 0.621784 0.619692 0.61232 0.603942 0.609315 0.601196 0.596167 0.571048 0.55238 0.530451 0.517829 0.51356 0.508413 0.50363 0.498882 0.494203 0.490285 0.485235 0.481309 0.47933 0.475728 0.472542 0.469363 0.466148 0.464265 0.461158 0.456968 0.45445 0.451874 0.448842 0.44709 0.444721 0.442166 0.439012 0.435615 0.433661 0.430557 0.428711 0.426495 0.424729 0.422282 0.420187 0.417554 0.416114 0.414362 0.412662 0.411019 0.409544 0.408019 0.406915 0.405558 0.404846 0.404813 0.404739 0.404555 0.403367 0.402525 0.401091 0.399102 0.398191 0.396686 0.395981
0.703712 0.697494 0.691317 0.692688 0.697644 0.702941 0.708509 0.71437 0.728631 0.754868 0.762642 0.767501 0.770422 0.777638 0.779413 0.779332 0.777517 0.772449 0.752684 0.732016 0.713399 0.704022 0.699243 0.695701 0.693396 0.691677 0.691567 0.693313 0.687409 0.685968 0.687373 0.685264 0.682345 0.664062 0.642963 0.637727 0.634559 0.634275 0.635395 0.634397 0.632156 0.62957 0.629051 0.629175 0.634743 0.640631 0.669733 0.680013 0.677069 0.678836 0.678327 0.675348 0.664066 0.653892 0.657151 0.665378 0.656918 0.631932 0.617394 0.614895 0.613951 0.614017 0.614264 0.611595 0.607169 0.6044 0.601868 0.601937 0.601069 0.601783 0.60411 0.605761 0.619416 0.624712 0.6399 0.603386 0.59903 0.604534 0.609861 0.64274 0.668348 0.66944 0.668731 0.668164 0.669521 0.669764 0.672386 0.669443 0.670597 0.668254 0.668687 0.664454 0.663306 0.662602 0.659892 0.65752 0.655108 0.651811 0.6487 0.6461 0.64498 0.643165 0.643578 0.6685 0.696361 0.639671 0.637356 0.638881 0.677732 0.662598 0.646164 0.647742 0.670256 0.662524 0.649116 0.654467 0.659899 0.662597 0.668027 0.668923 0.662324 0.657497 0.651691 0.655564 0.655315 0.654421 0.657112 0.655233 0.655005 0.655097 0.653285 0.651456 0.649947 0.648534 0.64693 0.645332 0.643678 0.64107 0.638352 0.635671 0.633739 0.633205 0.632955 0.630601 0.626731 0.624595 0.622772 0.620871 0.618635 0.61716 0.615714 0.614 0.611901 0.6102 0.608672 0.606673 0.606963 0.608811 0.610471 0.611639 0.60826 0.60719 0.603809 0.601178 0.601527 0.604139 0.611235 0.610344 0.609686 0.595338 0.588804 0.5905 0.591404 0.592285 0.592091 0.590715 0.591219 0.590025 0.590467 0.591482 0.592006 0.600058 0.605323 0.610516 0.594077 0.598599 0.615575 0.628274 0.629246 0.628121 0.626718 0.626629 0.624634 0.623395 0.622236 0.618124 0.610445 0.594175 0.574797 0.598202 0.57113 0.573829 0.537507 0.523674 0.516833 0.510481 0.506645 0.50095 0.496785 0.493068 0.489563 0.485906 0.482505 0.480118 0.476498 0.473839 0.470948 0.467768 0.463991 0.461701 0.458782 0.455409 0.45205 0.449531 0.447044 0.444341 0.440859 0.438778 0.435985 0.433308 0.430867 0.428185 0.425419 0.422941 0.421319 0.41863 0.416927 0.415685 0.413913 0.412882 0.411646 0.410654 0.409658 0.409089 0.407778 0.40679 0.406476 0.406163 0.406312 0.405638 0.404208 0.402475 0.400516 0.399878 0.398685 0.397494
0.686089 0.684826 0.685651 0.689212 0.693554 0.69896 0.711431 0.733839 0.754225 0.741811 0.73516 0.752874 0.754255 0.772376 0.778278 0.779207 0.778284 0.772168 0.759011 0.74119 0.73036 0.717185 0.702845 0.698625 0.698983 0.704208 0.708628 0.690563 0.688294 0.687763 0.68431 0.686883 0.680951 0.658475 0.645124 0.64056 0.638471 0.638747 0.63925 0.638048 0.635948 0.632894 0.631543 0.632797 0.636929 0.642264 0.661249 0.681917 0.67907 0.678895 0.67961 0.678373 0.671816 0.668562 0.671721 0.668081 0.648108 0.628376 0.619322 0.617364 0.617274 0.618298 0.619435 0.614969 0.612086 0.606933 0.606796 0.605693 0.605536 0.605169 0.607665 0.609262 0.628452 0.629301 0.639182 0.609071 0.603648 0.606373 0.61185 0.639233 0.672288 0.671586 0.670823 0.669415 0.669976 0.671046 0.671923 0.674899 0.672405 0.670433 0.669785 0.66809 0.665226 0.665163 0.661082 0.657608 0.654961 0.652643 0.651185 0.666204 0.644996 0.641771 0.640528 0.656178 0.698567 0.665927 0.640072 0.641349 0.697852 0.705424 0.652208 0.651022 0.698894 0.695614 0.652972 0.653872 0.657481 0.662547 0.671661 0.672006 0.665877 0.660837 0.654122 0.656964 0.656627 0.656992 0.658834 0.658282 0.657365 0.657262 0.655506 0.652894 0.652193 0.650821 0.649791 0.648127 0.645525 0.643246 0.63985 0.638332 0.636546 0.636098 0.634504 0.631451 0.628832 0.626766 0.62426 0.62249 0.620753 0.619107 0.617299 0.615161 0.613325 0.611161 0.610259 0.609738 0.609734 0.610776 0.612724 0.614025 0.612341 0.608505 0.607252 0.60429 0.602473 0.605508 0.617021 0.614132 0.616653 0.598406 0.590757 0.592649 0.594675 0.594178 0.594297 0.593682 0.59448 0.595978 0.595833 0.597555 0.595331 0.599301 0.606204 0.616981 0.607406 0.612562 0.625423 0.63187 0.630958 0.629927 0.629701 0.626974 0.625856 0.624358 0.620357 0.617097 0.608301 0.590419 0.563473 0.550492 0.557323 0.53771 0.526562 0.519514 0.513711 0.508987 0.505419 0.500375 0.49657 0.493096 0.489584 0.487062 0.484331 0.481234 0.477453 0.474637 0.472535 0.468189 0.466047 0.462624 0.459088 0.455967 0.453085 0.451009 0.447615 0.44409 0.441706 0.439925 0.436601 0.433114 0.430515 0.427803 0.424612 0.421762 0.418388 0.416668 0.415123 0.41491 0.414732 0.412241 0.410246 0.40874 0.407761 0.407475 0.410651 0.409103 0.408565 0.408144 0.408227 0.407295 0.406226 0.404228 0.402156 0.401483 0.400204 0.399275
0.676165 0.678895 0.681885 0.685087 0.694424 0.7084 0.727091 0.735861 0.728576 0.724237 0.715955 0.722699 0.746142 0.762788 0.776808 0.778765 0.778819 0.777653 0.773477 0.757282 0.731212 0.720649 0.706186 0.706536 0.727156 0.70675 0.69484 0.690527 0.689123 0.686155 0.692168 0.685528 0.678845 0.658285 0.647739 0.643208 0.641451 0.643135 0.643585 0.641854 0.638784 0.637785 0.635982 0.636088 0.638193 0.660444 0.669797 0.680255 0.681766 0.680632 0.680312 0.679068 0.678007 0.677125 0.675635 0.660945 0.644929 0.629017 0.623485 0.621732 0.621698 0.62079 0.624406 0.617566 0.613319 0.610278 0.609738 0.608558 0.607923 0.607864 0.610522 0.61206 0.628042 0.64146 0.647828 0.632603 0.605891 0.608347 0.615348 0.645402 0.672109 0.67357 0.672341 0.671205 0.671365 0.672198 0.673452 0.674259 0.676241 0.673094 0.67314 0.670334 0.667165 0.66502 0.662362 0.659663 0.654998 0.651111 0.648873 0.686059 0.676468 0.650804 0.642093 0.649289 0.70901 0.727092 0.643691 0.644614 0.687721 0.7047 0.66134 0.666346 0.727229 0.714798 0.664219 0.6572 0.657675 0.660834 0.670691 0.672615 0.66959 0.66404 0.65626 0.658474 0.658227 0.659918 0.661049 0.659747 0.660317 0.659022 0.657607 0.655133 0.654324 0.653139 0.651279 0.648967 0.647116 0.645101 0.64237 0.639348 0.638862 0.638459 0.636196 0.633675 0.63053 0.628764 0.626877 0.624672 0.623231 0.620728 0.618362 0.616594 0.614458 0.612833 0.612616 0.612977 0.612583 0.614884 0.616806 0.617676 0.613187 0.610767 0.608885 0.607778 0.607575 0.61043 0.619606 0.620281 0.619065 0.598296 0.593975 0.594932 0.596677 0.597066 0.597092 0.59821 0.598113 0.601736 0.598805 0.60129 0.601645 0.601946 0.605011 0.61354 0.625563 0.62359 0.632411 0.633329 0.632493 0.632745 0.630144 0.628086 0.624705 0.616762 0.606234 0.599017 0.599424 0.572476 0.55488 0.54004 0.534585 0.528934 0.522637 0.515929 0.51288 0.508421 0.504497 0.500582 0.49651 0.494513 0.491871 0.488774 0.484786 0.482308 0.479489 0.477007 0.474094 0.469438 0.466003 0.463801 0.459904 0.456259 0.454345 0.451821 0.449441 0.445952 0.44267 0.440383 0.438849 0.434889 0.431999 0.430185 0.423 0.41982 0.416811 0.414212 0.412029 0.412844 0.412271 0.416433 0.41109 0.406026 0.406572 0.405084 0.410027 0.409514 0.408988 0.410006 0.410192 0.409372 0.407202 0.405647 0.404283 0.40279 0.401734 0.400972
0.673947 0.6752 0.679913 0.687459 0.7002 0.722308 0.728675 0.705357 0.699157 0.699637 0.701734 0.719327 0.744321 0.73454 0.769989 0.778007 0.778867 0.778458 0.775462 0.764314 0.743588 0.724275 0.71808 0.73799 0.709956 0.701887 0.696072 0.693154 0.691611 0.698179 0.691 0.68604 0.67918 0.65929 0.649394 0.646352 0.64505 0.646227 0.646726 0.645193 0.646029 0.640739 0.637646 0.638692 0.640182 0.657245 0.675514 0.684819 0.682945 0.680851 0.68097 0.681184 0.680598 0.679927 0.674025 0.665228 0.64892 0.629608 0.626034 0.625574 0.625209 0.625796 0.630887 0.621696 0.616269 0.613742 0.613568 0.612101 0.612307 0.610478 0.613542 0.614711 0.620008 0.65675 0.656868 0.641965 0.612954 0.61158 0.618924 0.637591 0.6736 0.675601 0.673456 0.672584 0.672647 0.673798 0.675786 0.676057 0.676162 0.675136 0.675521 0.67067 0.669802 0.666215 0.664193 0.659573 0.65485 0.655468 0.654011 0.653303 0.66959 0.686164 0.653366 0.652232 0.682652 0.742987 0.668254 0.649111 0.677757 0.736654 0.668764 0.676964 0.748679 0.723893 0.672787 0.65726 0.65805 0.662043 0.668149 0.676217 0.672031 0.665995 0.660083 0.659558 0.660527 0.661734 0.662693 0.662985 0.663103 0.661454 0.659039 0.657778 0.656551 0.65542 0.653413 0.651365 0.649396 0.64661 0.644245 0.642277 0.641873 0.641225 0.63825 0.634978 0.63251 0.630662 0.628418 0.626703 0.62465 0.622562 0.619977 0.618067 0.616176 0.614884 0.614477 0.61563 0.615221 0.615703 0.619367 0.620946 0.615812 0.613258 0.612395 0.611039 0.610268 0.6136 0.620518 0.623266 0.62128 0.599216 0.596482 0.59717 0.599508 0.600239 0.60079 0.602976 0.604134 0.603546 0.604061 0.604154 0.608515 0.608017 0.612018 0.616763 0.628935 0.633034 0.635351 0.635692 0.635017 0.633532 0.629878 0.627225 0.617416 0.610054 0.59036 0.574385 0.57457 0.551448 0.542683 0.535569 0.530261 0.526113 0.521639 0.515984 0.512667 0.509739 0.505989 0.501881 0.499473 0.495779 0.492798 0.489213 0.486372 0.483569 0.48131 0.478101 0.474978 0.472065 0.469457 0.46538 0.461929 0.459324 0.456936 0.453956 0.451026 0.448487 0.445973 0.442722 0.439993 0.442048 0.44193 0.432833 0.423686 0.4206 0.417928 0.419709 0.418841 0.420164 0.417844 0.434996 0.414773 0.404419 0.409817 0.406312 0.420574 0.415239 0.407684 0.412 0.412157 0.410723 0.408842 0.407422 0.406267 0.404617 0.403345 0.403033
0.668357 0.671205 0.678995 0.686176 0.697862 0.698414 0.700439 0.688413 0.68751 0.69089 0.694665 0.699144 0.705517 0.726291 0.755722 0.774238 0.778669 0.778712 0.777144 0.771055 0.754702 0.747991 0.741083 0.721784 0.713193 0.706897 0.703289 0.705532 0.718379 0.704338 0.692093 0.684964 0.670343 0.662628 0.652242 0.648788 0.648837 0.650254 0.651643 0.652105 0.659382 0.646346 0.64216 0.64121 0.642593 0.673287 0.680831 0.685477 0.683145 0.681301 0.681272 0.682444 0.68149 0.681733 0.678338 0.667424 0.646257 0.631829 0.629978 0.630894 0.630041 0.62756 0.637752 0.623734 0.617522 0.617983 0.617679 0.616265 0.615622 0.614892 0.616419 0.619118 0.623644 0.664792 0.669486 0.668389 0.619172 0.616443 0.617483 0.632404 0.659498 0.677525 0.674737 0.674489 0.674037 0.675482 0.676861 0.678309 0.677622 0.677258 0.677182 0.673326 0.671093 0.667803 0.665319 0.660436 0.656122 0.656253 0.656742 0.656581 0.658059 0.672211 0.687307 0.67908 0.686031 0.728527 0.727239 0.671507 0.67343 0.755437 0.698299 0.716038 0.755745 0.716848 0.671701 0.665123 0.661313 0.665108 0.669601 0.67662 0.678365 0.671891 0.662827 0.660911 0.663489 0.663733 0.665345 0.665673 0.665212 0.663137 0.662155 0.660339 0.659219 0.65724 0.655653 0.654131 0.65062 0.649406 0.646909 0.645399 0.644523 0.64175 0.63899 0.636715 0.634902 0.632539 0.630148 0.628372 0.626303 0.624094 0.62299 0.62024 0.618338 0.617748 0.616954 0.618162 0.618979 0.617967 0.621874 0.622637 0.619273 0.615766 0.616029 0.614471 0.615497 0.616331 0.627101 0.627396 0.627104 0.603879 0.598785 0.601174 0.602147 0.6029 0.60517 0.60655 0.608041 0.610067 0.612237 0.608948 0.612387 0.614499 0.619438 0.627081 0.634184 0.637148 0.638536 0.637956 0.63644 0.631542 0.620616 0.621307 0.60096 0.59035 0.581129 0.568033 0.552297 0.547104 0.539883 0.53359 0.529757 0.524893 0.519714 0.516057 0.513657 0.510559 0.50655 0.503589 0.501138 0.499069 0.49411 0.490731 0.488112 0.485838 0.48324 0.480125 0.477355 0.474493 0.47273 0.46916 0.465674 0.46209 0.459324 0.456451 0.454702 0.451963 0.450501 0.445034 0.442846 0.444807 0.454774 0.435014 0.426843 0.424251 0.42443 0.434 0.440084 0.432693 0.440687 0.439696 0.423937 0.420166 0.431083 0.433402 0.427058 0.411477 0.410091 0.415377 0.41364 0.413038 0.410906 0.409685 0.408247 0.407116 0.405284 0.405256
0.665323 0.66768 0.67123 0.672849 0.673689 0.67802 0.680224 0.679809 0.681768 0.685455 0.690428 0.696538 0.702299 0.715907 0.742262 0.769013 0.778209 0.779064 0.778653 0.77654 0.770336 0.756266 0.74097 0.724679 0.724245 0.727658 0.732003 0.730408 0.714652 0.700968 0.691566 0.680406 0.671861 0.660307 0.654434 0.652013 0.65235 0.654907 0.655401 0.657999 0.669124 0.650601 0.645445 0.645679 0.645618 0.666846 0.685487 0.68488 0.685067 0.683303 0.682416 0.683733 0.683072 0.683484 0.679264 0.670055 0.639751 0.634716 0.635337 0.63651 0.634399 0.632894 0.638327 0.626028 0.62182 0.620642 0.621867 0.620205 0.618521 0.617768 0.619106 0.62153 0.62493 0.641788 0.674386 0.666379 0.623166 0.620345 0.622887 0.634209 0.659607 0.677569 0.675988 0.676903 0.675455 0.676743 0.67902 0.679766 0.678857 0.678826 0.677436 0.675213 0.672717 0.671412 0.667145 0.663444 0.673857 0.656359 0.656825 0.657093 0.658113 0.65945 0.66381 0.679532 0.696038 0.712719 0.757719 0.760607 0.698866 0.727305 0.764889 0.756903 0.775668 0.70656 0.676221 0.667203 0.664149 0.664297 0.670137 0.681354 0.681784 0.67699 0.666184 0.663147 0.66387 0.665752 0.667789 0.668525 0.667231 0.665983 0.663932 0.66324 0.660902 0.6595 0.658055 0.655612 0.653173 0.650683 0.649165 0.648337 0.647153 0.643863 0.641627 0.638882 0.636286 0.634034 0.631966 0.630137 0.627278 0.626881 0.625031 0.621963 0.621232 0.619874 0.618721 0.619683 0.622058 0.621367 0.623658 0.625474 0.621121 0.618569 0.618759 0.616918 0.618749 0.620838 0.627639 0.63084 0.627708 0.603366 0.601904 0.605746 0.604817 0.605517 0.608267 0.608768 0.611735 0.614388 0.615743 0.617558 0.615306 0.625082 0.624411 0.635581 0.639299 0.641026 0.640742 0.638796 0.63424 0.628719 0.618864 0.600704 0.585145 0.575762 0.568732 0.556372 0.548901 0.543076 0.537626 0.532952 0.528396 0.524307 0.521216 0.518288 0.514764 0.511889 0.508935 0.506418 0.502815 0.498779 0.496807 0.494061 0.49211 0.488574 0.486276 0.483233 0.482681 0.478105 0.474337 0.471568 0.468442 0.468068 0.469404 0.466587 0.463049 0.465288 0.461173 0.448411 0.45165 0.463587 0.455648 0.442017 0.443429 0.438736 0.437452 0.452864 0.454749 0.449173 0.451442 0.44688 0.439128 0.442807 0.440028 0.433028 0.418129 0.412657 0.41894 0.417633 0.416164 0.414589 0.41277 0.411501 0.409781 0.408641 0.407588 0.406858
0.658521 0.662548 0.662515 0.662603 0.664613 0.667258 0.669331 0.674142 0.680072 0.686908 0.693736 0.699403 0.708077 0.725438 0.752595 0.774717 0.777081 0.77901 0.778987 0.777699 0.773009 0.761061 0.746922 0.755944 0.748431 0.745448 0.724825 0.719879 0.709028 0.698847 0.690365 0.681969 0.673416 0.661124 0.657539 0.656017 0.656019 0.65847 0.658583 0.668949 0.671707 0.658711 0.650253 0.648602 0.649078 0.674324 0.68644 0.686834 0.687058 0.685017 0.684049 0.685351 0.685517 0.685256 0.680975 0.657123 0.644132 0.640225 0.639718 0.640025 0.638164 0.637651 0.640207 0.62958 0.624324 0.624833 0.62618 0.624576 0.622652 0.622546 0.62207 0.624898 0.628153 0.63846 0.675117 0.678236 0.633925 0.625653 0.625665 0.631217 0.656651 0.672424 0.678958 0.679102 0.67764 0.678272 0.681482 0.682419 0.680799 0.680168 0.678329 0.677348 0.674548 0.673562 0.669872 0.666703 0.68597 0.702585 0.688202 0.659828 0.65972 0.660229 0.663456 0.669026 0.674654 0.693022 0.747238 0.787505 0.762223 0.75473 0.802228 0.794302 0.78131 0.694778 0.679907 0.676979 0.666147 0.666612 0.671672 0.675416 0.683323 0.680731 0.668509 0.664893 0.666386 0.668406 0.670654 0.670496 0.66934 0.667787 0.666568 0.66501 0.663513 0.661748 0.660406 0.657127 0.65515 0.653277 0.652073 0.650546 0.649609 0.646091 0.642999 0.640185 0.637652 0.635697 0.633316 0.631585 0.630262 0.628968 0.628225 0.625377 0.62419 0.622695 0.622751 0.622326 0.625697 0.625193 0.626738 0.628677 0.624496 0.621871 0.621357 0.620533 0.623558 0.624909 0.633008 0.634568 0.631521 0.607859 0.604834 0.606596 0.607369 0.609994 0.612176 0.612529 0.616982 0.616745 0.622017 0.623705 0.622508 0.625037 0.634255 0.640669 0.643256 0.643152 0.641977 0.638011 0.634625 0.629006 0.620674 0.611358 0.586848 0.569778 0.560422 0.554261 0.548057 0.541586 0.537106 0.533586 0.527929 0.525651 0.523223 0.520189 0.51741 0.514861 0.5112 0.508266 0.505176 0.502729 0.500251 0.496998 0.494754 0.492052 0.489625 0.488089 0.486188 0.482922 0.48526 0.480178 0.471365 0.472578 0.475223 0.483781 0.483031 0.491017 0.475395 0.458002 0.468168 0.472419 0.466686 0.461211 0.464185 0.456397 0.460235 0.463097 0.461261 0.457707 0.454729 0.452679 0.448994 0.444394 0.438281 0.429692 0.419328 0.422041 0.421742 0.419467 0.418447 0.416318 0.415012 0.412996 0.411812 0.410697 0.409658 0.408857
0.656792 0.65499 0.657278 0.659109 0.661941 0.66449 0.669071 0.672807 0.678822 0.68789 0.695286 0.720212 0.75775 0.765299 0.766512 0.759549 0.769589 0.778512 0.778874 0.778251 0.776627 0.773209 0.76772 0.759577 0.745152 0.731684 0.718312 0.707801 0.70207 0.695641 0.690032 0.682309 0.669254 0.663546 0.661474 0.659277 0.661255 0.660983 0.664038 0.679192 0.682991 0.663582 0.655571 0.652923 0.651164 0.675455 0.687157 0.689159 0.688992 0.686266 0.686072 0.685956 0.687452 0.686586 0.677731 0.654867 0.645719 0.642449 0.644061 0.647022 0.644191 0.640911 0.641182 0.629519 0.629083 0.628133 0.62925 0.627136 0.627533 0.62638 0.626226 0.628279 0.630416 0.638601 0.663591 0.681719 0.659855 0.62792 0.631154 0.63819 0.658312 0.677012 0.682569 0.681208 0.680005 0.680785 0.683503 0.684391 0.682358 0.681787 0.680186 0.677614 0.67674 0.674509 0.67126 0.669896 0.676547 0.714253 0.726406 0.72599 0.686606 0.670305 0.66825 0.673151 0.678733 0.682777 0.688695 0.746516 0.79828 0.795764 0.81498 0.79677 0.729679 0.703801 0.700838 0.710283 0.67227 0.668038 0.672643 0.680661 0.684099 0.681509 0.670546 0.666612 0.668102 0.671384 0.672969 0.672535 0.671085 0.670573 0.668172 0.667073 0.665051 0.663507 0.661825 0.660266 0.657268 0.655092 0.654504 0.653239 0.649731 0.646888 0.644246 0.642468 0.6398 0.636682 0.635341 0.633879 0.63278 0.631815 0.630899 0.6297 0.626448 0.626564 0.625891 0.624869 0.627417 0.633523 0.629592 0.630227 0.627547 0.624744 0.624722 0.624603 0.628194 0.628889 0.636289 0.638666 0.619564 0.608639 0.608115 0.610192 0.612249 0.61283 0.614531 0.616478 0.618276 0.622483 0.627564 0.629408 0.633228 0.634838 0.642931 0.644465 0.646587 0.644812 0.642168 0.637372 0.630516 0.623943 0.608938 0.59512 0.582705 0.567751 0.558772 0.550362 0.544811 0.542288 0.538072 0.533509 0.530811 0.527181 0.525034 0.52167 0.520352 0.516103 0.513525 0.511218 0.508983 0.505829 0.503421 0.500302 0.498441 0.496795 0.496888 0.494949 0.492971 0.500507 0.508319 0.48891 0.477146 0.479422 0.486933 0.488052 0.505575 0.505264 0.483872 0.478798 0.483417 0.480368 0.479111 0.476012 0.474808 0.469785 0.470576 0.467588 0.464643 0.459612 0.455469 0.449223 0.445758 0.438329 0.431721 0.428027 0.427111 0.425741 0.423752 0.422167 0.420288 0.418666 0.416994 0.414799 0.413323 0.412236 0.41143 0.410783
0.650298 0.653247 0.65434 0.657736 0.661804 0.664351 0.668163 0.675592 0.683428 0.723712 0.735621 0.743126 0.733283 0.72455 0.72936 0.733725 0.765333 0.777049 0.778275 0.778166 0.777308 0.774467 0.769808 0.762079 0.748823 0.727619 0.713746 0.705944 0.702059 0.696398 0.691194 0.677406 0.669282 0.666162 0.663502 0.662178 0.664154 0.66447 0.667145 0.68044 0.687315 0.673476 0.657812 0.656699 0.656456 0.672855 0.690546 0.690686 0.690317 0.688991 0.687847 0.688585 0.689682 0.687172 0.682331 0.65803 0.647391 0.648001 0.65001 0.652856 0.646637 0.64553 0.641346 0.632968 0.63152 0.632345 0.632368 0.631823 0.629684 0.629092 0.628247 0.631963 0.635552 0.638912 0.665691 0.684488 0.67576 0.641765 0.632607 0.639682 0.654723 0.679225 0.685159 0.685333 0.683762 0.683212 0.686153 0.68613 0.684093 0.683037 0.681109 0.679298 0.677977 0.67581 0.674036 0.673538 0.672848 0.691822 0.70152 0.728059 0.749966 0.721113 0.677548 0.680409 0.701907 0.70252 0.696898 0.707065 0.770214 0.816358 0.821936 0.783509 0.752007 0.727185 0.730014 0.71769 0.67597 0.670267 0.673483 0.67697 0.684528 0.683011 0.672277 0.668678 0.671994 0.674805 0.675865 0.674386 0.674382 0.673102 0.67028 0.668595 0.666718 0.666113 0.66486 0.66186 0.659533 0.658127 0.657372 0.654598 0.652757 0.648871 0.645864 0.643378 0.640504 0.638499 0.63793 0.636658 0.635396 0.634458 0.634027 0.632135 0.630041 0.628576 0.627409 0.626858 0.62948 0.638334 0.632025 0.632905 0.630004 0.627919 0.627564 0.627773 0.6298 0.634217 0.640803 0.642102 0.625176 0.61228 0.611387 0.611997 0.617591 0.617 0.617901 0.618914 0.622674 0.628268 0.63136 0.632164 0.646598 0.647044 0.647947 0.650123 0.647058 0.644571 0.640027 0.633351 0.624756 0.615107 0.597895 0.591089 0.571677 0.565353 0.556481 0.550344 0.546663 0.543153 0.539318 0.536217 0.532951 0.529323 0.527711 0.525417 0.524639 0.520888 0.516623 0.514278 0.511798 0.510129 0.508145 0.505555 0.504389 0.503855 0.503756 0.511932 0.521616 0.533768 0.529345 0.499931 0.496034 0.499101 0.506534 0.513702 0.518611 0.506153 0.498135 0.50058 0.494957 0.489732 0.488445 0.484881 0.480761 0.47724 0.472155 0.464081 0.459364 0.456584 0.447873 0.444987 0.44025 0.435557 0.432959 0.431102 0.429422 0.427857 0.42579 0.423575 0.422003 0.420409 0.418858 0.416638 0.41499 0.414087 0.412943 0.412222
0.647559 0.64998 0.653626 0.655401 0.660096 0.663816 0.671593 0.696721 0.709327 0.701383 0.692747 0.689317 0.695068 0.704246 0.712255 0.736676 0.7709 0.775258 0.77688 0.777403 0.77702 0.775512 0.771874 0.764268 0.752214 0.73751 0.724297 0.7076 0.704516 0.697813 0.687205 0.678718 0.673331 0.669546 0.666862 0.666622 0.670096 0.672177 0.66974 0.683137 0.69091 0.679844 0.663372 0.660663 0.663235 0.682197 0.690718 0.692452 0.692579 0.691238 0.690533 0.691249 0.691949 0.688013 0.674224 0.657417 0.653563 0.652019 0.652338 0.666342 0.656855 0.648779 0.64597 0.635891 0.635841 0.636003 0.637414 0.641341 0.633236 0.632248 0.632969 0.63431 0.637522 0.642229 0.656569 0.688779 0.685749 0.648731 0.637167 0.643544 0.658124 0.67513 0.688035 0.687902 0.686278 0.686221 0.688397 0.688082 0.685797 0.683635 0.681927 0.681023 0.679732 0.677223 0.676483 0.676789 0.676013 0.680242 0.686715 0.699593 0.730608 0.749135 0.711698 0.722102 0.731372 0.757815 0.767892 0.732811 0.748111 0.809555 0.828277 0.815728 0.804154 0.761635 0.75873 0.766489 0.69251 0.67237 0.675569 0.680413 0.686383 0.685713 0.675441 0.671818 0.675003 0.677564 0.677465 0.677427 0.677498 0.674437 0.672897 0.670543 0.669734 0.667863 0.666387 0.663923 0.662131 0.660752 0.658686 0.657061 0.653646 0.650087 0.647179 0.644251 0.642009 0.641374 0.64071 0.640152 0.638441 0.63726 0.637309 0.634828 0.632257 0.640347 0.662816 0.628892 0.631816 0.642482 0.635243 0.635068 0.632193 0.631166 0.631217 0.632588 0.635106 0.640655 0.644786 0.647884 0.621551 0.614057 0.614633 0.618252 0.620067 0.620801 0.620822 0.621592 0.627274 0.633086 0.637387 0.638527 0.652523 0.652423 0.652427 0.649545 0.64702 0.643228 0.636489 0.627648 0.611398 0.603817 0.599304 0.579764 0.57173 0.560585 0.555473 0.550786 0.547543 0.545047 0.540663 0.5386 0.535221 0.533578 0.530642 0.531697 0.527816 0.525106 0.523442 0.521696 0.516711 0.515918 0.515251 0.513946 0.513056 0.516002 0.515297 0.533748 0.547768 0.547573 0.539378 0.525209 0.523753 0.527659 0.533094 0.525179 0.521041 0.515565 0.510296 0.506204 0.500551 0.497098 0.494954 0.487039 0.482922 0.471854 0.468417 0.463967 0.454147 0.451272 0.447345 0.444286 0.440242 0.437867 0.436181 0.434328 0.431301 0.429167 0.42706 0.425828 0.423619 0.422016 0.420096 0.418405 0.416519 0.415572 0.414452 0.413513
0.644744 0.648282 0.651182 0.655078 0.661865 0.681161 0.69411 0.680106 0.674585 0.675047 0.677634 0.679313 0.690892 0.707625 0.720128 0.75669 0.765683 0.767237 0.771989 0.775721 0.776532 0.7745 0.768516 0.751021 0.742921 0.732018 0.71359 0.707079 0.704148 0.700595 0.692273 0.685928 0.67927 0.674365 0.670609 0.669581 0.672002 0.678391 0.674562 0.687085 0.694711 0.689537 0.666696 0.666149 0.670897 0.684779 0.695744 0.694972 0.6951 0.694724 0.693555 0.693552 0.694072 0.691032 0.67338 0.660934 0.654905 0.65604 0.663893 0.678308 0.657931 0.652169 0.648878 0.63946 0.639847 0.640302 0.640823 0.656763 0.63814 0.637614 0.635571 0.636645 0.640065 0.643485 0.652243 0.683652 0.689995 0.672485 0.643769 0.644594 0.659452 0.6801 0.689687 0.691687 0.691068 0.689711 0.690788 0.689678 0.68759 0.684935 0.683244 0.681892 0.680868 0.678892 0.678016 0.678341 0.67913 0.67909 0.689312 0.705395 0.715494 0.739169 0.764378 0.770344 0.785312 0.790001 0.806422 0.805332 0.779066 0.790391 0.829499 0.833494 0.829316 0.794033 0.80033 0.789524 0.773534 0.673933 0.676807 0.681359 0.689855 0.684476 0.677748 0.674438 0.677954 0.678836 0.679774 0.6811 0.679565 0.676298 0.674773 0.67348 0.672431 0.670244 0.668234 0.665782 0.664384 0.662847 0.661252 0.658179 0.655695 0.651418 0.64796 0.645678 0.644712 0.644355 0.643963 0.643388 0.64085 0.639354 0.640297 0.636669 0.636579 0.646095 0.693986 0.639056 0.632703 0.642702 0.638601 0.637803 0.635518 0.633174 0.634573 0.634362 0.637595 0.647425 0.648112 0.648959 0.629604 0.616726 0.621346 0.61977 0.623234 0.623396 0.624428 0.625514 0.632977 0.641702 0.640408 0.650777 0.656772 0.65536 0.651761 0.648999 0.645303 0.639279 0.632179 0.612921 0.598261 0.593447 0.581506 0.57243 0.566241 0.561173 0.556879 0.552289 0.550056 0.546588 0.54346 0.540134 0.538725 0.537224 0.536795 0.537952 0.535267 0.534355 0.526716 0.524386 0.52408 0.522141 0.525051 0.52964 0.533054 0.536768 0.557139 0.558037 0.55608 0.550834 0.548384 0.544073 0.542554 0.537079 0.536001 0.529025 0.521548 0.51196 0.509914 0.502358 0.495191 0.492865 0.486023 0.474431 0.469179 0.465452 0.461205 0.458314 0.454618 0.451043 0.448207 0.444951 0.442297 0.439688 0.437848 0.435204 0.433105 0.430771 0.428814 0.426997 0.425328 0.423143 0.422073 0.419737 0.418095 0.417207 0.416186 0.415526
0.643312 0.64613 0.650079 0.661385 0.66931 0.663735 0.663394 0.663517 0.664852 0.668215 0.676315 0.682669 0.699377 0.72407 0.752319 0.752918 0.743304 0.744035 0.757519 0.771697 0.775957 0.774999 0.767335 0.739309 0.724657 0.716567 0.712378 0.710522 0.707816 0.703193 0.699344 0.688557 0.683614 0.679422 0.674413 0.673764 0.67556 0.687285 0.681312 0.693494 0.696585 0.690554 0.671858 0.670755 0.674013 0.693254 0.695648 0.697139 0.699276 0.697672 0.696218 0.696914 0.696214 0.691219 0.677904 0.66215 0.661308 0.659352 0.677792 0.680312 0.66689 0.655601 0.64743 0.643629 0.642689 0.644247 0.654371 0.668187 0.640474 0.639014 0.639656 0.639403 0.641734 0.646807 0.650169 0.690864 0.692853 0.686603 0.650442 0.647893 0.666384 0.681352 0.69077 0.694886 0.694874 0.693069 0.693832 0.69229 0.688863 0.686329 0.685358 0.68364 0.682261 0.681318 0.679827 0.680481 0.681036 0.681803 0.690766 0.699587 0.737664 0.751212 0.770035 0.781898 0.793503 0.805449 0.81415 0.81907 0.825644 0.82377 0.834273 0.838635 0.836345 0.823341 0.828254 0.820424 0.7666 0.676837 0.677202 0.684937 0.68951 0.687815 0.679162 0.676949 0.680091 0.682327 0.684012 0.683442 0.68172 0.679187 0.677411 0.675607 0.674243 0.671602 0.670493 0.668864 0.667013 0.664998 0.663344 0.659925 0.656193 0.652632 0.65075 0.648532 0.647404 0.647985 0.644698 0.644063 0.643612 0.64275 0.642842 0.642435 0.637541 0.667187 0.691288 0.651783 0.637025 0.644731 0.639329 0.640343 0.6367 0.637649 0.637442 0.639517 0.641756 0.648293 0.654654 0.656379 0.625049 0.619445 0.622178 0.624966 0.627884 0.626549 0.62732 0.627572 0.639405 0.645842 0.649808 0.658978 0.659374 0.655391 0.652611 0.648776 0.64292 0.637229 0.623756 0.609211 0.597461 0.584398 0.578548 0.570877 0.567004 0.561607 0.556612 0.554196 0.551945 0.549256 0.546975 0.545989 0.542538 0.540462 0.54311 0.551111 0.546829 0.537296 0.533452 0.53316 0.531666 0.532294 0.542638 0.551935 0.572161 0.569898 0.565156 0.558598 0.548389 0.541675 0.539016 0.536312 0.533607 0.537725 0.527135 0.519472 0.513141 0.509628 0.497321 0.493882 0.484516 0.480938 0.477935 0.472486 0.468261 0.46507 0.460968 0.458109 0.45475 0.451266 0.448492 0.445993 0.443172 0.440693 0.438618 0.436542 0.434587 0.432161 0.430622 0.42863 0.426819 0.424901 0.423782 0.422088 0.420097 0.419136 0.418212 0.417344
0.640866 0.642297 0.647552 0.652113 0.652862 0.654594 0.653806 0.656962 0.66196 0.666216 0.674914 0.69271 0.724186 0.74064 0.737532 0.727891 0.717838 0.717288 0.749897 0.765096 0.774968 0.775069 0.769874 0.75271 0.729612 0.718126 0.713749 0.711358 0.708339 0.706641 0.699227 0.693424 0.692045 0.683817 0.683253 0.680397 0.680251 0.689705 0.691271 0.697218 0.699138 0.691022 0.680744 0.679307 0.680095 0.69538 0.699445 0.701488 0.703353 0.701186 0.699822 0.699681 0.698016 0.694085 0.678601 0.668289 0.66244 0.663884 0.688522 0.684566 0.667828 0.659098 0.650966 0.647683 0.647565 0.649881 0.667737 0.674818 0.648728 0.643546 0.642277 0.643519 0.644129 0.646458 0.651407 0.665931 0.694097 0.694588 0.663102 0.653011 0.66059 0.689583 0.693657 0.697999 0.698382 0.695781 0.69544 0.694686 0.69075 0.687639 0.68687 0.684926 0.684673 0.68288 0.682991 0.682191 0.68287 0.683738 0.68579 0.71016 0.728824 0.764086 0.77131 0.747252 0.772286 0.793906 0.797393 0.804666 0.827383 0.835369 0.838519 0.841219 0.84104 0.838492 0.828022 0.774113 0.761173 0.68194 0.680746 0.683961 0.695262 0.691667 0.681905 0.680416 0.683133 0.6862 0.687267 0.686474 0.683832 0.681203 0.679399 0.678215 0.675443 0.674021 0.673113 0.671825 0.669588 0.667253 0.664705 0.660624 0.657618 0.654679 0.652264 0.65129 0.650411 0.649452 0.641907 0.64171 0.64589 0.644364 0.646307 0.645211 0.647451 0.658614 0.700161 0.651926 0.64072 0.64842 0.641807 0.642084 0.640368 0.639243 0.641473 0.64241 0.644762 0.657579 0.660308 0.641622 0.62769 0.624854 0.626713 0.630415 0.63151 0.630973 0.630611 0.630353 0.643404 0.649981 0.665225 0.664891 0.660213 0.655906 0.652095 0.646551 0.639587 0.626125 0.612361 0.59802 0.588333 0.582651 0.577068 0.57112 0.566272 0.561932 0.558478 0.555869 0.554485 0.552408 0.549525 0.54888 0.547517 0.549773 0.555307 0.564443 0.547377 0.544165 0.54113 0.546105 0.554692 0.562596 0.569346 0.574529 0.557353 0.563124 0.556324 0.561366 0.550557 0.528251 0.523868 0.521543 0.519834 0.516279 0.519894 0.510167 0.502356 0.495496 0.492156 0.486343 0.481766 0.478889 0.474367 0.471062 0.467829 0.4641 0.461681 0.458149 0.454474 0.451695 0.44907 0.446434 0.44448 0.442056 0.440179 0.438178 0.435936 0.433297 0.432144 0.430087 0.428631 0.427233 0.425209 0.423844 0.421984 0.420914 0.42021 0.420158
0.637343 0.64243 0.643391 0.646872 0.647205 0.649515 0.651297 0.654646 0.659044 0.666242 0.675049 0.712741 0.713375 0.715075 0.712366 0.701755 0.699633 0.706797 0.740346 0.75472 0.771815 0.774876 0.770701 0.753874 0.734418 0.727018 0.718332 0.715542 0.711263 0.70791 0.704874 0.699408 0.69773 0.691659 0.691812 0.690447 0.687046 0.694753 0.694569 0.698439 0.700871 0.697215 0.690491 0.689277 0.687802 0.697255 0.701781 0.702322 0.706924 0.704424 0.703809 0.702343 0.69925 0.695366 0.684291 0.668772 0.670124 0.673156 0.692048 0.689564 0.673873 0.661404 0.653344 0.650894 0.652394 0.655017 0.671166 0.679468 0.66499 0.647617 0.646113 0.646041 0.649474 0.648846 0.652209 0.656976 0.690402 0.696499 0.687612 0.659839 0.661734 0.685866 0.697233 0.699267 0.700843 0.700615 0.698503 0.695634 0.693934 0.69012 0.689306 0.687491 0.686514 0.685537 0.685128 0.683751 0.684934 0.685804 0.686993 0.689449 0.702301 0.705955 0.71164 0.717833 0.7274 0.73865 0.758973 0.776771 0.809058 0.833033 0.840578 0.842795 0.843438 0.841578 0.818045 0.767042 0.709414 0.691574 0.687527 0.685828 0.698218 0.691271 0.684938 0.684457 0.686896 0.689272 0.689442 0.688408 0.685606 0.683805 0.68214 0.679924 0.678222 0.676766 0.675465 0.673033 0.67139 0.668568 0.665731 0.663316 0.659802 0.656562 0.65529 0.654457 0.652897 0.653267 0.654084 0.644751 0.649425 0.647241 0.648956 0.648497 0.674696 0.683891 0.720511 0.673092 0.646552 0.651626 0.656554 0.645834 0.643533 0.642982 0.643388 0.646978 0.650506 0.658347 0.665054 0.650259 0.632356 0.626538 0.629503 0.630492 0.633541 0.634393 0.63341 0.634342 0.646174 0.653401 0.670493 0.664253 0.658203 0.65328 0.648417 0.639277 0.626959 0.615271 0.606135 0.593051 0.588723 0.581564 0.576894 0.571518 0.569177 0.564739 0.561426 0.559998 0.55743 0.555098 0.55366 0.55298 0.55125 0.557414 0.584576 0.568401 0.561585 0.559939 0.570477 0.573519 0.578317 0.578317 0.567045 0.564432 0.547588 0.538841 0.537286 0.533055 0.525447 0.52064 0.516109 0.513685 0.510935 0.506791 0.503483 0.50409 0.495093 0.491153 0.488308 0.484143 0.479485 0.476113 0.473385 0.470561 0.466818 0.463955 0.461104 0.457408 0.454904 0.452653 0.45036 0.447847 0.445997 0.44367 0.441597 0.439986 0.437551 0.435566 0.434089 0.432378 0.430561 0.428837 0.427088 0.425156 0.423914 0.422854 0.421608 0.421225
0.635187 0.637667 0.639652 0.642106 0.643765 0.64669 0.649351 0.653008 0.655545 0.659193 0.666042 0.67003 0.689789 0.685643 0.690003 0.686767 0.692765 0.714071 0.717944 0.732652 0.75997 0.773815 0.774998 0.774322 0.761468 0.73825 0.736895 0.731386 0.713068 0.709536 0.705411 0.703186 0.699883 0.698219 0.698508 0.696785 0.694666 0.698495 0.699327 0.70104 0.701506 0.700088 0.69968 0.699054 0.696739 0.699995 0.703368 0.705814 0.710101 0.708077 0.706628 0.704988 0.702132 0.697298 0.682518 0.677436 0.677439 0.687008 0.694491 0.687748 0.673537 0.662576 0.656525 0.655582 0.655729 0.660901 0.673642 0.683387 0.683537 0.651202 0.650859 0.651567 0.651794 0.651219 0.654002 0.658099 0.675294 0.698145 0.697938 0.668359 0.66831 0.678037 0.698681 0.701833 0.703321 0.704082 0.701405 0.697874 0.693923 0.691579 0.69155 0.689952 0.68832 0.688368 0.687732 0.686305 0.68716 0.687923 0.688617 0.690162 0.695251 0.703473 0.712587 0.717692 0.724287 0.741255 0.756724 0.784897 0.809148 0.826255 0.838664 0.843585 0.844413 0.841957 0.826992 0.779464 0.739332 0.693062 0.688314 0.691227 0.702834 0.693247 0.688234 0.687699 0.689847 0.69319 0.692144 0.690535 0.687945 0.686426 0.683464 0.681557 0.680711 0.678776 0.677471 0.676332 0.672518 0.670118 0.667561 0.664439 0.661485 0.659325 0.658831 0.657177 0.655851 0.661068 0.688711 0.660453 0.656466 0.652561 0.650987 0.651138 0.695395 0.710232 0.728101 0.701871 0.654807 0.657992 0.675787 0.657208 0.64598 0.646867 0.648625 0.650169 0.651046 0.666468 0.664439 0.656958 0.632987 0.631078 0.635426 0.635551 0.638663 0.637928 0.636439 0.637877 0.655469 0.671292 0.668714 0.662304 0.65946 0.653716 0.643943 0.635768 0.618589 0.607443 0.600207 0.59276 0.586119 0.582722 0.577737 0.574189 0.571561 0.567791 0.565941 0.563809 0.561496 0.558333 0.557347 0.556853 0.560627 0.596206 0.592926 0.580402 0.579826 0.587074 0.584265 0.573883 0.563538 0.55843 0.547164 0.542898 0.53648 0.531653 0.527772 0.524263 0.520173 0.516136 0.512891 0.50987 0.506968 0.503588 0.499686 0.495474 0.493468 0.488709 0.485391 0.482355 0.479601 0.476463 0.472941 0.470356 0.466955 0.463984 0.460927 0.458822 0.456161 0.45419 0.452767 0.450444 0.447283 0.44544 0.443848 0.441496 0.439201 0.437276 0.435541 0.433932 0.432404 0.430796 0.428406 0.426852 0.425739 0.424983 0.423807 0.422881
0.632858 0.635242 0.637599 0.640204 0.641601 0.644209 0.646366 0.648722 0.650725 0.655471 0.657691 0.665252 0.671301 0.672962 0.675019 0.67848 0.690144 0.700068 0.701195 0.710014 0.763885 0.769812 0.77239 0.774931 0.772681 0.762366 0.749278 0.72973 0.717278 0.710451 0.707748 0.70377 0.699985 0.698716 0.700276 0.700532 0.699041 0.700169 0.700895 0.70227 0.702862 0.702332 0.702676 0.702894 0.701194 0.70328 0.705766 0.707101 0.713321 0.712501 0.709712 0.707377 0.703452 0.701533 0.690749 0.682925 0.686459 0.694546 0.696201 0.68409 0.6751 0.664533 0.660803 0.658055 0.660648 0.665659 0.675442 0.687899 0.698289 0.670235 0.651313 0.655012 0.655836 0.655265 0.656418 0.660009 0.666757 0.698963 0.701872 0.684872 0.674225 0.687463 0.700782 0.704322 0.707192 0.705845 0.70351 0.700413 0.696506 0.693444 0.69339 0.693215 0.691401 0.691574 0.691827 0.690395 0.689131 0.690094 0.691551 0.693883 0.694978 0.699665 0.707181 0.712521 0.723536 0.7367 0.758851 0.767907 0.79071 0.82755 0.837567 0.843894 0.844052 0.834323 0.818929 0.833435 0.76056 0.695218 0.691694 0.693248 0.70361 0.696086 0.69091 0.69102 0.69355 0.695994 0.695697 0.694209 0.690205 0.68803 0.685418 0.684042 0.682676 0.680968 0.68011 0.677581 0.674749 0.671868 0.669392 0.66691 0.664275 0.663243 0.662363 0.660511 0.660399 0.662068 0.719603 0.680533 0.671785 0.659269 0.653645 0.65461 0.677115 0.727542 0.725195 0.682985 0.662998 0.671795 0.703232 0.661381 0.650132 0.649301 0.649153 0.653471 0.657936 0.677383 0.670748 0.655916 0.638244 0.633815 0.637541 0.640282 0.641667 0.641156 0.639288 0.642048 0.659915 0.677071 0.66763 0.661888 0.656304 0.648961 0.63707 0.624216 0.614347 0.604159 0.598604 0.592087 0.587863 0.583607 0.580247 0.576908 0.574492 0.571399 0.570019 0.569007 0.565843 0.56521 0.562098 0.564411 0.587417 0.602216 0.597359 0.592677 0.586893 0.578643 0.570474 0.561757 0.557855 0.54789 0.542343 0.537683 0.531285 0.527533 0.523372 0.519899 0.516541 0.513612 0.510279 0.507362 0.504638 0.501572 0.498038 0.494845 0.491403 0.488437 0.484884 0.482305 0.479589 0.476433 0.473648 0.470567 0.467743 0.465033 0.462601 0.460096 0.458016 0.455863 0.454108 0.451131 0.448811 0.446945 0.445191 0.442816 0.440794 0.439202 0.437777 0.436004 0.434182 0.431996 0.430621 0.429049 0.428167 0.426506 0.425304 0.424465
0.631939 0.633784 0.635724 0.637171 0.639564 0.641437 0.644412 0.646726 0.648712 0.651019 0.653781 0.656371 0.659503 0.665465 0.667375 0.674484 0.682862 0.686935 0.690558 0.707102 0.721979 0.733505 0.759202 0.774836 0.775242 0.7711 0.760905 0.742101 0.720184 0.713637 0.708093 0.703322 0.700256 0.698817 0.699914 0.701777 0.701064 0.701654 0.700845 0.703001 0.704289 0.703162 0.703651 0.704664 0.704771 0.705625 0.709202 0.710385 0.715691 0.715724 0.713559 0.709373 0.70667 0.703079 0.697707 0.688163 0.694431 0.69972 0.696095 0.686727 0.676543 0.666537 0.664092 0.661278 0.663488 0.678179 0.68235 0.686693 0.700596 0.676771 0.657032 0.657267 0.658105 0.65937 0.659702 0.660428 0.670246 0.691538 0.705748 0.70123 0.68244 0.689521 0.697642 0.704869 0.71069 0.70942 0.705533 0.701619 0.697982 0.695802 0.696084 0.695579 0.69358 0.693975 0.695198 0.694063 0.691432 0.692295 0.693957 0.696407 0.69992 0.703462 0.709536 0.711395 0.720008 0.727257 0.739735 0.755012 0.789758 0.816614 0.837081 0.843395 0.844404 0.808421 0.77029 0.745537 0.726298 0.696302 0.694731 0.699383 0.703189 0.697822 0.695461 0.694797 0.697418 0.698578 0.698179 0.694885 0.692121 0.690098 0.688227 0.686941 0.685533 0.684117 0.682636 0.679503 0.677273 0.674342 0.670797 0.670196 0.66813 0.665645 0.666039 0.666156 0.662904 0.664595 0.705838 0.713821 0.686051 0.662334 0.655368 0.657873 0.665923 0.739136 0.734777 0.681783 0.673941 0.686687 0.731437 0.680253 0.652417 0.65418 0.651803 0.655005 0.665826 0.676381 0.673236 0.653698 0.640522 0.636863 0.641933 0.644211 0.645693 0.644175 0.642995 0.650591 0.667477 0.673834 0.666402 0.660682 0.654596 0.647639 0.635437 0.620896 0.608828 0.603448 0.598011 0.593219 0.588994 0.585775 0.583046 0.580135 0.577569 0.575723 0.57424 0.575809 0.57389 0.571644 0.569867 0.594521 0.608185 0.601743 0.591334 0.585159 0.579642 0.571746 0.561766 0.556751 0.549815 0.54443 0.537966 0.533131 0.529135 0.525193 0.5217 0.519099 0.515809 0.512467 0.509734 0.506889 0.503058 0.500239 0.498073 0.495479 0.492166 0.488581 0.485052 0.482602 0.480092 0.476971 0.474305 0.47223 0.469371 0.466987 0.46486 0.462577 0.460377 0.45803 0.455706 0.453417 0.450811 0.448629 0.446316 0.44429 0.443011 0.441214 0.439274 0.437482 0.43558 0.433968 0.432325 0.430916 0.429286 0.428652 0.426796 0.426291
0.631442 0.634067 0.6357 0.637753 0.639944 0.64209 0.644709 0.647293 0.649722 0.651769 0.654394 0.656485 0.659771 0.663222 0.667362 0.66959 0.67563 0.681967 0.685468 0.692218 0.701229 0.720141 0.744614 0.769558 0.776802 0.776372 0.769818 0.744885 0.742911 0.714029 0.708853 0.703543 0.701652 0.70083 0.700458 0.707756 0.701562 0.701699 0.702605 0.704268 0.704949 0.704363 0.704738 0.705957 0.706389 0.707263 0.710127 0.710391 0.716409 0.719856 0.715552 0.711445 0.709022 0.705715 0.699528 0.693278 0.699888 0.702245 0.697883 0.689089 0.679886 0.670903 0.667196 0.667513 0.66791 0.693437 0.686905 0.695994 0.710945 0.710143 0.659201 0.660688 0.662303 0.663643 0.662566 0.663477 0.669032 0.680589 0.707518 0.707147 0.695395 0.694934 0.702786 0.707316 0.710468 0.712289 0.707363 0.7037 0.700103 0.698871 0.699153 0.699585 0.695896 0.697659 0.698223 0.698358 0.696358 0.695141 0.695814 0.700344 0.701637 0.704658 0.712028 0.717928 0.773055 0.785685 0.797621 0.819115 0.823413 0.836331 0.839865 0.843036 0.841217 0.815732 0.763288 0.732841 0.715181 0.704091 0.700335 0.706081 0.704577 0.70128 0.698754 0.699258 0.701909 0.701154 0.699758 0.696868 0.694714 0.692507 0.690834 0.689517 0.687555 0.686522 0.683815 0.681188 0.678939 0.677063 0.672989 0.673242 0.670503 0.668597 0.668867 0.668065 0.666225 0.666794 0.68105 0.736852 0.724433 0.704735 0.658803 0.658055 0.668321 0.744215 0.7463 0.703371 0.691858 0.716314 0.736428 0.675489 0.653749 0.656081 0.655718 0.661629 0.678199 0.681187 0.673443 0.659166 0.643964 0.641128 0.643587 0.64754 0.647441 0.647395 0.649868 0.655609 0.679513 0.67025 0.664305 0.659254 0.655368 0.649816 0.632459 0.614988 0.609645 0.603814 0.598875 0.594533 0.591342 0.588543 0.586641 0.582738 0.581318 0.580965 0.581544 0.581343 0.581976 0.580252 0.596345 0.611816 0.605693 0.595427 0.58874 0.580091 0.571108 0.564138 0.557128 0.551219 0.544685 0.539342 0.536344 0.532308 0.528255 0.525268 0.5224 0.519194 0.515666 0.513134 0.510221 0.507217 0.504866 0.501721 0.49873 0.496094 0.49332 0.490029 0.487548 0.484523 0.481359 0.479156 0.476357 0.474006 0.472151 0.469197 0.466965 0.46412 0.461716 0.459445 0.457504 0.454758 0.452212 0.450432 0.44796 0.446972 0.444584 0.44265 0.440631 0.438872 0.437106 0.435081 0.433634 0.432042 0.430667 0.42959 0.428566 0.42793
0.630706 0.633725 0.635641 0.637817 0.640223 0.642784 0.645136 0.648126 0.649902 0.652704 0.655301 0.657748 0.661314 0.66429 0.666798 0.670612 0.675049 0.677748 0.68219 0.689145 0.712763 0.734696 0.769192 0.774815 0.777539 0.778379 0.777096 0.766297 0.734624 0.716327 0.710178 0.706637 0.704494 0.704139 0.708673 0.733282 0.702228 0.702643 0.702505 0.70518 0.706218 0.705227 0.706418 0.706885 0.708231 0.709974 0.71446 0.713158 0.719056 0.722255 0.718659 0.71472 0.712853 0.707953 0.703097 0.698367 0.703166 0.704094 0.700375 0.689995 0.68333 0.674773 0.671927 0.671231 0.671523 0.70295 0.705926 0.696415 0.718541 0.705408 0.664116 0.663595 0.666154 0.667663 0.666665 0.667073 0.6687 0.67558 0.70604 0.709152 0.7037 0.702341 0.706113 0.708644 0.714231 0.714936 0.70981 0.705522 0.702375 0.701244 0.702797 0.702068 0.699325 0.699498 0.701218 0.701823 0.701 0.699247 0.698673 0.701841 0.703939 0.705292 0.708783 0.717369 0.746115 0.751806 0.759906 0.779051 0.785555 0.811729 0.832327 0.841548 0.843408 0.841779 0.825343 0.763791 0.722424 0.70791 0.706782 0.710433 0.709045 0.70516 0.704371 0.704241 0.705135 0.704333 0.701903 0.699832 0.697238 0.694831 0.69338 0.691611 0.690458 0.688082 0.685939 0.68354 0.680689 0.678499 0.676391 0.67661 0.6734 0.672215 0.671646 0.67028 0.670317 0.67004 0.671214 0.714224 0.750404 0.713801 0.667035 0.66292 0.674652 0.748901 0.749167 0.716992 0.719655 0.738255 0.738988 0.702832 0.657713 0.659403 0.658619 0.667215 0.671453 0.682552 0.674476 0.658696 0.646564 0.64564 0.650021 0.651926 0.652099 0.651623 0.654476 0.662152 0.680263 0.671157 0.664441 0.660309 0.656842 0.644867 0.623341 0.615591 0.609814 0.605175 0.600806 0.596658 0.594566 0.59232 0.58945 0.586378 0.583602 0.583365 0.586035 0.587023 0.590898 0.594037 0.614154 0.611126 0.601302 0.590881 0.582648 0.574814 0.566138 0.559302 0.553704 0.547677 0.544039 0.539967 0.53701 0.53328 0.530389 0.526246 0.523241 0.519703 0.51724 0.513199 0.509868 0.509049 0.505813 0.502799 0.499658 0.497577 0.494318 0.492137 0.489507 0.485972 0.483141 0.480268 0.479053 0.476006 0.474135 0.471129 0.467848 0.466303 0.463968 0.460939 0.458072 0.45576 0.454309 0.452718 0.450487 0.448904 0.446528 0.443885 0.442163 0.440009 0.438158 0.436396 0.434738 0.433242 0.432061 0.430976 0.430047 0.429637
0.631038 0.63381 0.63636 0.638215 0.641025 0.643566 0.64569 0.649634 0.650628 0.652749 0.656341 0.660293 0.661915 0.665117 0.670194 0.675526 0.681256 0.682022 0.683433 0.684916 0.695865 0.726001 0.752306 0.758036 0.774376 0.779801 0.780234 0.774303 0.738741 0.718237 0.71331 0.710118 0.710475 0.711149 0.728713 0.746251 0.705038 0.703221 0.704395 0.704851 0.706349 0.706988 0.707342 0.7085 0.708512 0.710003 0.716093 0.715522 0.719891 0.720801 0.721389 0.717621 0.713676 0.709748 0.706779 0.703695 0.705484 0.706236 0.702119 0.696508 0.688937 0.679828 0.67379 0.675731 0.674786 0.712603 0.723301 0.707921 0.713767 0.718456 0.668731 0.667432 0.669579 0.671121 0.670867 0.670085 0.672699 0.676282 0.687405 0.712729 0.708471 0.705945 0.708649 0.711553 0.715193 0.717831 0.71156 0.709108 0.705879 0.70433 0.704862 0.705897 0.703702 0.703686 0.705941 0.706049 0.703222 0.701227 0.701838 0.703371 0.705584 0.707071 0.710938 0.713477 0.720255 0.726957 0.73393 0.749557 0.78175 0.818364 0.834331 0.841299 0.840479 0.837065 0.823464 0.769217 0.720521 0.711588 0.711128 0.714323 0.71014 0.705962 0.704854 0.705131 0.7062 0.705345 0.703279 0.70056 0.698827 0.697289 0.69604 0.694126 0.692325 0.690281 0.687469 0.685906 0.682738 0.680307 0.679821 0.67998 0.67632 0.675055 0.674817 0.677118 0.672604 0.673197 0.672399 0.701737 0.753771 0.75549 0.683034 0.667681 0.677034 0.76083 0.75518 0.738489 0.746003 0.754693 0.746747 0.673929 0.659021 0.662163 0.663806 0.671448 0.673991 0.685414 0.675716 0.658193 0.651327 0.648451 0.650293 0.654026 0.656201 0.655696 0.657396 0.668988 0.681084 0.672678 0.665869 0.662481 0.657633 0.633563 0.621955 0.615597 0.611678 0.607985 0.603848 0.599373 0.598046 0.594845 0.592572 0.590508 0.586644 0.585834 0.587672 0.59025 0.60861 0.611311 0.615616 0.605673 0.595413 0.586061 0.575901 0.570062 0.563713 0.557511 0.552123 0.549394 0.545835 0.544013 0.540481 0.53774 0.534069 0.53117 0.527229 0.5229 0.517606 0.514448 0.512417 0.509568 0.508549 0.504617 0.501962 0.499214 0.496065 0.493655 0.490789 0.487928 0.484907 0.483357 0.480317 0.477922 0.475321 0.473382 0.469931 0.467037 0.464464 0.461934 0.460577 0.45787 0.456228 0.453797 0.451749 0.449942 0.447107 0.445188 0.443344 0.440925 0.439676 0.437853 0.436044 0.434912 0.433382 0.432708 0.431675 0.430904
0.629679 0.633329 0.636502 0.639044 0.641551 0.644079 0.64718 0.648547 0.652072 0.655385 0.658164 0.660681 0.665924 0.667681 0.67138 0.676327 0.68476 0.685196 0.687391 0.689561 0.691146 0.69462 0.704419 0.723754 0.756908 0.778818 0.782051 0.782313 0.767788 0.721596 0.714947 0.714473 0.715273 0.71893 0.750836 0.748835 0.708719 0.70432 0.703809 0.707117 0.707336 0.708445 0.709183 0.709752 0.711632 0.710568 0.714142 0.71775 0.722111 0.721231 0.723589 0.721467 0.716879 0.712897 0.708122 0.706542 0.708218 0.708527 0.706798 0.703194 0.694096 0.680286 0.679003 0.678568 0.682994 0.707393 0.726129 0.727071 0.720917 0.709756 0.672897 0.670799 0.67341 0.674717 0.67671 0.674429 0.675395 0.676792 0.686189 0.706712 0.713194 0.710251 0.710386 0.713667 0.716648 0.719347 0.714085 0.710052 0.707293 0.707079 0.70836 0.710558 0.707129 0.706386 0.709139 0.711027 0.710118 0.706131 0.705238 0.707272 0.709672 0.711545 0.714154 0.71551 0.722814 0.735065 0.73862 0.754365 0.792899 0.827427 0.837965 0.840225 0.837568 0.812556 0.782307 0.743745 0.724756 0.714434 0.715454 0.717278 0.712431 0.709414 0.70864 0.708148 0.708817 0.707508 0.705583 0.702958 0.701815 0.700346 0.698457 0.696527 0.694288 0.692951 0.689779 0.688204 0.684581 0.683088 0.683018 0.683095 0.680259 0.677177 0.679083 0.687576 0.676902 0.674713 0.676572 0.69513 0.755112 0.755013 0.683077 0.677038 0.688237 0.76459 0.763005 0.758941 0.759772 0.75777 0.752426 0.681932 0.663373 0.668799 0.667484 0.670477 0.678755 0.683894 0.679279 0.663452 0.653657 0.652115 0.65699 0.658594 0.659761 0.660001 0.661806 0.682558 0.678796 0.671149 0.667453 0.662792 0.642427 0.629759 0.623489 0.619901 0.614998 0.611374 0.605062 0.602901 0.602155 0.59975 0.600648 0.598464 0.589909 0.588387 0.59001 0.60395 0.617819 0.620499 0.610492 0.597722 0.589072 0.57839 0.572912 0.566372 0.561585 0.558485 0.555607 0.552549 0.55307 0.55224 0.55066 0.550379 0.556652 0.551191 0.54396 0.526335 0.51824 0.516304 0.513731 0.513684 0.510575 0.507022 0.504321 0.500543 0.498549 0.495007 0.492534 0.48988 0.487721 0.4847 0.481216 0.478908 0.476588 0.473028 0.47066 0.4683 0.466092 0.46403 0.461667 0.459884 0.457441 0.455136 0.452807 0.450654 0.448525 0.446313 0.444026 0.443115 0.440648 0.439277 0.437669 0.436247 0.434981 0.434373 0.433368 0.432974
0.630879 0.632447 0.635813 0.638753 0.641424 0.644282 0.646598 0.649829 0.65296 0.656399 0.659347 0.663686 0.665965 0.672951 0.676209 0.68048 0.684788 0.692038 0.693755 0.694822 0.692987 0.696802 0.705333 0.71509 0.764311 0.782109 0.784068 0.784872 0.778931 0.730561 0.718557 0.718049 0.721746 0.731574 0.757428 0.750992 0.708211 0.701897 0.705779 0.707343 0.709605 0.709569 0.708608 0.708867 0.709946 0.712219 0.715044 0.716876 0.718658 0.723994 0.725622 0.7242 0.720081 0.715318 0.710438 0.709514 0.71115 0.711666 0.710328 0.707347 0.692186 0.684621 0.685257 0.683104 0.683138 0.69902 0.709123 0.732063 0.73587 0.727191 0.678583 0.674124 0.679536 0.681086 0.680217 0.679663 0.679371 0.680591 0.683535 0.698686 0.715223 0.713196 0.713467 0.715733 0.718814 0.721746 0.718183 0.713069 0.709519 0.709089 0.710146 0.713194 0.711576 0.709298 0.711386 0.712863 0.711372 0.708799 0.709005 0.709587 0.710903 0.711528 0.71413 0.716568 0.723838 0.731127 0.744305 0.77103 0.79047 0.819803 0.836066 0.8397 0.840219 0.826569 0.766358 0.736708 0.724016 0.71928 0.721635 0.718411 0.715641 0.713618 0.711687 0.712062 0.712207 0.710449 0.707721 0.705745 0.704012 0.702635 0.700814 0.697962 0.696725 0.694727 0.691729 0.689653 0.68731 0.686248 0.686665 0.686716 0.682388 0.680776 0.681397 0.698651 0.67992 0.67799 0.680313 0.699538 0.759424 0.764799 0.714837 0.692531 0.696077 0.772345 0.770086 0.767273 0.764637 0.751113 0.728129 0.680291 0.666805 0.670233 0.670088 0.674631 0.685724 0.685601 0.679159 0.664242 0.657732 0.657965 0.658879 0.662398 0.663536 0.664462 0.666751 0.687089 0.679746 0.67322 0.671127 0.663732 0.640771 0.62982 0.625782 0.622301 0.619326 0.612494 0.610488 0.608032 0.60753 0.609035 0.610289 0.605769 0.594099 0.59053 0.592583 0.60827 0.6227 0.616993 0.606626 0.594172 0.58342 0.57689 0.571729 0.568337 0.564921 0.562583 0.565311 0.565459 0.567235 0.573308 0.575953 0.569609 0.557046 0.546887 0.532424 0.524368 0.520605 0.518412 0.518351 0.515063 0.511755 0.509468 0.505483 0.50242 0.499258 0.496714 0.493558 0.490779 0.489258 0.485842 0.482428 0.480658 0.477275 0.474809 0.472195 0.470085 0.467512 0.465345 0.463611 0.460723 0.458264 0.455835 0.453635 0.451663 0.450126 0.447962 0.446177 0.444425 0.442412 0.440622 0.439421 0.438201 0.436817 0.435951 0.435359 0.434868
0.632017 0.634064 0.636716 0.638602 0.641564 0.644637 0.647242 0.649787 0.652598 0.65738 0.660873 0.666241 0.671656 0.673925 0.680532 0.684351 0.687854 0.694353 0.698665 0.707003 0.707556 0.701963 0.701338 0.707814 0.728564 0.771521 0.786582 0.788003 0.780245 0.742146 0.724127 0.722142 0.726694 0.742927 0.770382 0.74314 0.709338 0.70684 0.70769 0.711087 0.711303 0.709391 0.706977 0.706832 0.708896 0.711768 0.71384 0.717256 0.717567 0.72144 0.726059 0.725193 0.722044 0.71784 0.713806 0.711937 0.713197 0.714305 0.713357 0.706845 0.694379 0.688738 0.688909 0.686813 0.690126 0.699368 0.710847 0.719437 0.739333 0.726736 0.684862 0.678889 0.681919 0.688461 0.686872 0.684715 0.682125 0.684192 0.686219 0.69403 0.71038 0.71602 0.716626 0.717203 0.720328 0.723424 0.721526 0.716221 0.712429 0.711069 0.711579 0.717463 0.714188 0.711941 0.713383 0.715797 0.71673 0.712806 0.712024 0.712387 0.71357 0.714329 0.71604 0.720503 0.72291 0.730213 0.742838 0.777719 0.808064 0.828729 0.83834 0.838651 0.83319 0.824683 0.787972 0.746224 0.726503 0.725437 0.72438 0.721455 0.721106 0.7165 0.715615 0.716543 0.714969 0.711874 0.709747 0.708162 0.706915 0.704787 0.702794 0.701098 0.69906 0.696579 0.694518 0.691038 0.689707 0.690703 0.690472 0.688105 0.688746 0.683156 0.683846 0.718808 0.688963 0.680508 0.681431 0.687792 0.739849 0.777349 0.753015 0.698805 0.725544 0.776508 0.774972 0.770249 0.754919 0.726607 0.70468 0.677669 0.672939 0.673354 0.674526 0.679501 0.68683 0.688063 0.678518 0.667984 0.661717 0.66213 0.664317 0.667443 0.667776 0.668261 0.674702 0.690969 0.681132 0.676744 0.671687 0.652857 0.6387 0.633347 0.629791 0.627507 0.622672 0.617304 0.614683 0.614232 0.619757 0.619847 0.619331 0.615858 0.599722 0.594028 0.596543 0.614007 0.625367 0.621693 0.613195 0.596676 0.584223 0.576743 0.573275 0.571208 0.569319 0.571895 0.576632 0.58297 0.588544 0.582204 0.568031 0.565531 0.556586 0.544669 0.532037 0.526605 0.524143 0.523047 0.51831 0.516238 0.513365 0.510316 0.507449 0.503594 0.501464 0.499573 0.495492 0.492723 0.490039 0.486267 0.483622 0.480855 0.47874 0.475643 0.473439 0.472013 0.468824 0.466719 0.464101 0.461179 0.459792 0.457098 0.455645 0.453636 0.452167 0.45008 0.447899 0.445896 0.444506 0.442769 0.44096 0.440431 0.438806 0.43768 0.437141 0.437232
0.63383 0.6355 0.637645 0.639611 0.642002 0.64498 0.647948 0.650548 0.653169 0.655715 0.660428 0.666455 0.678645 0.701303 0.716925 0.708429 0.700024 0.704498 0.727007 0.739794 0.748239 0.741588 0.713201 0.711947 0.71095 0.739295 0.772138 0.790033 0.79095 0.768233 0.728471 0.726242 0.72936 0.749747 0.767291 0.744579 0.711646 0.710846 0.711704 0.71343 0.712229 0.709114 0.70625 0.705753 0.705816 0.715015 0.71486 0.715678 0.717397 0.72016 0.725284 0.726936 0.723842 0.720014 0.718836 0.714407 0.716361 0.716892 0.714739 0.707806 0.696648 0.692077 0.693917 0.690981 0.690438 0.704004 0.713471 0.72384 0.743525 0.728497 0.687241 0.683075 0.687668 0.69438 0.695589 0.688948 0.688285 0.688072 0.689131 0.693605 0.704942 0.717864 0.719369 0.719599 0.722617 0.725747 0.723875 0.718172 0.715271 0.713189 0.712912 0.725777 0.71848 0.713998 0.713689 0.716243 0.720026 0.715998 0.715002 0.716333 0.716921 0.718056 0.720455 0.72299 0.727213 0.729078 0.73708 0.755195 0.791693 0.827547 0.837091 0.839205 0.8205 0.792067 0.778647 0.737032 0.729283 0.727431 0.727146 0.726094 0.72243 0.720891 0.720183 0.719209 0.716875 0.714469 0.71265 0.711354 0.709616 0.70701 0.705164 0.703083 0.70098 0.699672 0.696648 0.694427 0.692747 0.699751 0.69345 0.693782 0.690289 0.685436 0.687087 0.702677 0.720721 0.68669 0.686603 0.700536 0.747878 0.777385 0.742334 0.720847 0.761159 0.782159 0.77992 0.770646 0.7442 0.720871 0.696 0.680924 0.67718 0.676889 0.677551 0.680436 0.691136 0.689164 0.680884 0.670435 0.665911 0.666265 0.668051 0.671537 0.672477 0.673506 0.679753 0.692128 0.684043 0.680134 0.669377 0.648556 0.641507 0.638056 0.635577 0.63432 0.627285 0.624922 0.620042 0.624556 0.62791 0.62623 0.626138 0.6234 0.604833 0.59691 0.600703 0.620662 0.626947 0.623092 0.614535 0.599046 0.586923 0.581171 0.576667 0.574787 0.578844 0.589322 0.596475 0.595002 0.581741 0.572037 0.562146 0.550019 0.546379 0.53838 0.533942 0.529444 0.527824 0.524591 0.521317 0.517711 0.513477 0.51127 0.507281 0.5046 0.503036 0.499305 0.496236 0.492691 0.489872 0.486982 0.484095 0.481853 0.480254 0.47748 0.474974 0.472417 0.470069 0.467438 0.465396 0.46316 0.461079 0.45963 0.457302 0.454983 0.452943 0.451653 0.44965 0.447881 0.44623 0.444757 0.443553 0.442356 0.441239 0.440065 0.439384 0.438906
