0.711615 0.717971 0.724796 0.731866 0.738973 0.745925 0.752548 0.758683 0.76419 0.768944 0.772839 0.775783 0.777703 0.778541 0.778258 0.77683 0.77425 0.770529 0.765693 0.759787 0.752871 0.745022 0.736335 0.72692 0.716905 0.706435 0.695672 0.684793 0.673993 0.663485 0.653496 0.644273 0.636077 0.629296 0.624051 0.620218 0.617677 0.616308 0.615996 0.616625 0.618082 0.620259 0.623046 0.626339 0.630033 0.634026 0.63822 0.642518 0.646824 0.651046 0.655093 0.658877 0.662312 0.665313 0.667798 0.669689 0.670907 0.671377 0.671026 0.669782 0.667578 0.664347 0.660024 0.654546 0.647854 0.640507 0.633186 0.626007 0.619075 0.612484 0.606318 0.600648 0.595536 0.591033 0.587177 0.583997 0.581511 0.579726 0.578636 0.578228 0.578474 0.579337 0.58077 0.582713 0.585097 0.58784 0.59085 0.594025 0.597251 0.600404 0.603347 0.605935 0.608009 0.609401 0.609932 0.609412 0.607639 0.604873 0.601574 0.59783 0.593723 0.589334 0.584736 0.580001 0.575196 0.570384 0.565623 0.560968 0.556471 0.552178 0.54813 0.544368 0.540924 0.537831 0.535113 0.532794 0.530891 0.529419 0.528387 0.527803 0.527667 0.527977 0.528728 0.52991 0.531507 0.533502 0.535873 0.538592 0.541629 0.544801 0.547904 0.55088 0.553675 0.556242 0.558539 0.56053 0.562183 0.563473 0.564382 0.564894 0.565002 0.564703 0.564 0.5629 0.561418 0.559574 0.557392 0.554905 0.552147 0.549161 0.545994 0.5427 0.539338 0.535971 0.532671 0.529511 0.526575 0.523947 0.521722 0.519996 0.518873 0.518022 0.517076 0.516085 0.515095 0.514149 0.513286 0.512539 0.51194 0.511514 0.511285 0.51127 0.511485 0.511939 0.51264 0.513589 0.514786 0.516225 0.517897 0.519788 0.521881 0.524154 0.526582 0.529135 0.531781 0.534482 0.537197 0.53988 0.542481 0.544949 0.547224 0.549247 0.550952 0.552808 0.55523 0.558076 0.56121 0.564505 0.567843 0.571115 0.574219 0.577062 0.57956 0.581636 0.583223 0.584261 0.5847 0.584497 0.583619 0.582039 0.57974 0.576714 0.57296 0.568487 0.563311 0.557456 0.550956 0.543854 0.536198 0.528048 0.519471 0.510541 0.501344 0.491971 0.482522 0.473098 0.463742 0.454479 0.44533 0.436314 0.427447 0.418745 0.410218 0.401875 0.393724 0.385769 0.378012 0.370452 0.363086 0.355909 0.348914 0.342089 0.335422 0.328898 0.322499 0.316206 0.309995 0.303842 0.29772 0.291598 0.285444 0.279224 0.2729 0.266434 0.259782 0.2529
0.713802 0.720159 0.726948 0.733949 0.740956 0.747782 0.754255 0.76022 0.765541 0.770096 0.77378 0.776506 0.778202 0.778814 0.778304 0.776652 0.773853 0.769919 0.764879 0.75878 0.751683 0.743667 0.734829 0.725281 0.715151 0.704587 0.693749 0.682819 0.671991 0.661478 0.651509 0.642331 0.634206 0.627503 0.622329 0.618561 0.616083 0.614777 0.614529 0.615227 0.616759 0.619018 0.621897 0.625291 0.629097 0.633214 0.637543 0.641988 0.646454 0.650847 0.655076 0.659053 0.66269 0.665901 0.668604 0.670717 0.672161 0.672859 0.672734 0.671713 0.669725 0.6667 0.66257 0.65727 0.650736 0.643502 0.636229 0.629035 0.622028 0.615306 0.608955 0.60305 0.597655 0.592825 0.588603 0.585021 0.582101 0.579853 0.578276 0.577361 0.577085 0.577416 0.57831 0.579714 0.581563 0.58378 0.586279 0.588963 0.591724 0.594443 0.59699 0.599224 0.600995 0.60214 0.602486 0.60185 0.600037 0.5973 0.59408 0.590458 0.58651 0.58231 0.577926 0.573424 0.568865 0.564307 0.559805 0.555408 0.551165 0.547116 0.543303 0.539761 0.53652 0.533611 0.531057 0.528878 0.527092 0.525713 0.524749 0.524206 0.524088 0.524391 0.525111 0.52624 0.527763 0.529665 0.531926 0.534521 0.537423 0.540453 0.543411 0.54624 0.548891 0.551317 0.553478 0.55534 0.556873 0.558054 0.558865 0.559292 0.559328 0.558972 0.558226 0.5571 0.555608 0.553769 0.551609 0.549159 0.546454 0.543536 0.540453 0.537255 0.534002 0.530757 0.527588 0.524569 0.52178 0.519306 0.517237 0.51567 0.514706 0.514033 0.513304 0.512567 0.511865 0.511237 0.510718 0.51034 0.51013 0.510112 0.510305 0.510724 0.511382 0.512284 0.513435 0.514834 0.516477 0.518355 0.520455 0.522762 0.525254 0.527907 0.530693 0.533579 0.536528 0.539501 0.542453 0.545336 0.548096 0.550678 0.553021 0.555061 0.55673 0.558531 0.560916 0.563739 0.566867 0.570171 0.573534 0.576843 0.579998 0.582905 0.585477 0.587639 0.58932 0.590462 0.591011 0.590925 0.590167 0.58871 0.586537 0.583637 0.580007 0.575655 0.570594 0.564849 0.55845 0.551437 0.543858 0.535771 0.527238 0.518335 0.509142 0.499749 0.490255 0.480749 0.471271 0.461848 0.452505 0.443263 0.434141 0.425157 0.416324 0.407656 0.399162 0.390849 0.382722 0.374783 0.367033 0.359468 0.352085 0.344876 0.337831 0.330937 0.324181 0.317546 0.311011 0.304556 0.298155 0.291782 0.285409 0.279002 0.27253 0.265953 0.259236 0.252334
0.716304 0.722651 0.729392 0.736307 0.743198 0.749881 0.756187 0.761966 0.767083 0.771422 0.77488 0.777374 0.778834 0.779209 0.778464 0.776581 0.773558 0.769408 0.764164 0.757872 0.750597 0.74242 0.733437 0.723763 0.713528 0.702878 0.691977 0.681004 0.670157 0.659648 0.649707 0.640579 0.632528 0.625896 0.620767 0.617024 0.614555 0.613247 0.61299 0.613675 0.615195 0.617445 0.62032 0.623719 0.627541 0.631687 0.63606 0.640563 0.645104 0.64959 0.653929 0.658034 0.661816 0.665189 0.66807 0.670376 0.672026 0.672941 0.673043 0.672256 0.670506 0.66772 0.663827 0.658757 0.652444 0.645391 0.638235 0.631096 0.624084 0.617299 0.61083 0.604755 0.599141 0.594047 0.589517 0.585589 0.582288 0.579627 0.577612 0.576235 0.57548 0.575319 0.575713 0.576614 0.577961 0.579685 0.581705 0.58393 0.586256 0.588573 0.590756 0.592672 0.594176 0.595114 0.595319 0.594615 0.592816 0.590166 0.587087 0.583653 0.57993 0.575985 0.571878 0.567668 0.563411 0.559158 0.554958 0.550857 0.546896 0.543115 0.539549 0.536232 0.533191 0.530454 0.528042 0.525975 0.52427 0.522939 0.521992 0.521436 0.521273 0.521504 0.522125 0.52313 0.524509 0.526249 0.528333 0.530742 0.533453 0.53629 0.539054 0.541692 0.544155 0.5464 0.54839 0.550092 0.551478 0.552526 0.55322 0.553547 0.5535 0.55308 0.552289 0.551137 0.549638 0.547812 0.545683 0.543281 0.540643 0.537807 0.534821 0.531734 0.528603 0.525489 0.52246 0.519586 0.516944 0.514618 0.512694 0.511265 0.510429 0.509902 0.509364 0.508857 0.508422 0.508096 0.507909 0.507891 0.508064 0.50845 0.509064 0.509917 0.511019 0.512373 0.513979 0.515834 0.517929 0.520253 0.52279 0.525519 0.528418 0.531457 0.534606 0.537829 0.541086 0.544332 0.547521 0.550601 0.553515 0.556204 0.558605 0.560649 0.562265 0.56399 0.566309 0.569079 0.572165 0.57544 0.578785 0.582088 0.585249 0.588172 0.590772 0.592971 0.594701 0.595899 0.596514 0.5965 0.595821 0.594449 0.592365 0.589557 0.58602 0.581762 0.576794 0.571137 0.564823 0.557888 0.550379 0.54235 0.533864 0.524993 0.515814 0.506416 0.496894 0.487333 0.477771 0.468236 0.458755 0.449351 0.440046 0.430859 0.421806 0.412902 0.404159 0.395585 0.387189 0.378974 0.370943 0.363096 0.355429 0.347939 0.340617 0.333453 0.326436 0.31955 0.312779 0.306103 0.2995 0.292946 0.286414 0.279875 0.273298 0.266648 0.259889 0.252983
0.719018 0.725347 0.732027 0.738847 0.74561 0.752137 0.758264 0.763845 0.768749 0.772863 0.776087 0.778342 0.779561 0.779697 0.778716 0.776603 0.773358 0.768998 0.763555 0.757079 0.749636 0.741308 0.732193 0.722406 0.712077 0.701356 0.690404 0.679403 0.668549 0.658055 0.648149 0.639078 0.631103 0.624535 0.619428 0.615673 0.613163 0.611793 0.611458 0.612055 0.613481 0.615636 0.61842 0.621735 0.625484 0.62957 0.6339 0.63838 0.642917 0.647422 0.651805 0.655976 0.65985 0.66334 0.666362 0.668833 0.67067 0.671793 0.672122 0.671579 0.670086 0.667569 0.663953 0.659163 0.653129 0.646322 0.639348 0.63233 0.625378 0.618596 0.612073 0.605891 0.600121 0.594821 0.590043 0.585825 0.582196 0.579175 0.576769 0.574978 0.573788 0.573176 0.57311 0.573545 0.574428 0.575693 0.577267 0.579065 0.58099 0.582937 0.584789 0.586421 0.587695 0.588463 0.588569 0.587843 0.586108 0.5836 0.580722 0.577535 0.574098 0.570467 0.566694 0.56283 0.558924 0.55502 0.551161 0.547387 0.543734 0.540238 0.53693 0.53384 0.530993 0.528413 0.526122 0.524139 0.522478 0.521153 0.520174 0.519549 0.519284 0.51938 0.519837 0.520653 0.521821 0.523333 0.525179 0.527344 0.529813 0.53241 0.534936 0.53734 0.539577 0.541607 0.543395 0.544909 0.546124 0.547021 0.547582 0.547798 0.547662 0.547175 0.546339 0.545165 0.543666 0.541861 0.539775 0.537436 0.534878 0.53214 0.529266 0.526305 0.52331 0.52034 0.517459 0.514735 0.512242 0.510059 0.508268 0.506958 0.506223 0.505811 0.505434 0.505133 0.504944 0.5049 0.505028 0.505354 0.505899 0.506677 0.507702 0.508983 0.510523 0.512324 0.514381 0.516688 0.519233 0.522 0.524971 0.528122 0.531425 0.534849 0.538359 0.541915 0.545474 0.54899 0.552409 0.555679 0.558738 0.561524 0.56397 0.566004 0.567552 0.56918 0.571409 0.574097 0.577108 0.580317 0.583605 0.586862 0.589985 0.592882 0.595466 0.59766 0.599393 0.600606 0.601244 0.601263 0.600625 0.599302 0.597273 0.594525 0.591054 0.586864 0.581967 0.576382 0.570138 0.563271 0.555825 0.547852 0.539415 0.53058 0.521425 0.512036 0.502504 0.492914 0.483303 0.4737 0.464133 0.454628 0.445207 0.435891 0.426697 0.417641 0.408736 0.399993 0.391421 0.383026 0.374811 0.366777 0.358924 0.351248 0.343743 0.336401 0.329211 0.322161 0.315234 0.308414 0.301679 0.295008 0.288375 0.281754 0.275113 0.268423 0.261647 0.254748
0.721848 0.728151 0.734764 0.74148 0.748107 0.754471 0.760413 0.76579 0.770477 0.774362 0.777352 0.779369 0.78035 0.78025 0.779039 0.776704 0.773247 0.768687 0.763059 0.756413 0.748818 0.740355 0.731125 0.721242 0.710839 0.700063 0.689078 0.678064 0.667217 0.656749 0.646889 0.637882 0.629986 0.623474 0.618367 0.614565 0.611969 0.610482 0.610006 0.610444 0.611701 0.613682 0.616294 0.619442 0.623035 0.626981 0.631188 0.635567 0.64003 0.644486 0.648849 0.653031 0.656947 0.660512 0.663641 0.666249 0.668256 0.669578 0.670134 0.669843 0.668627 0.666406 0.663102 0.658638 0.652937 0.646435 0.639704 0.632868 0.626039 0.619321 0.612807 0.60658 0.600712 0.595267 0.590296 0.585843 0.581941 0.57861 0.575864 0.573705 0.572125 0.571107 0.570621 0.570629 0.571085 0.571928 0.573091 0.574495 0.576052 0.577663 0.579218 0.5806 0.581679 0.582316 0.582362 0.581658 0.580034 0.577719 0.575095 0.57221 0.569113 0.565849 0.562461 0.558992 0.555481 0.551965 0.54848 0.545061 0.541737 0.53854 0.535496 0.532632 0.529971 0.527534 0.525342 0.523412 0.52176 0.520399 0.519342 0.518597 0.518173 0.518075 0.518307 0.518871 0.519766 0.520991 0.52254 0.524408 0.526587 0.5289 0.531147 0.533281 0.535259 0.537043 0.538602 0.539906 0.540932 0.541661 0.542079 0.542176 0.541948 0.541393 0.540516 0.539325 0.537835 0.536064 0.534033 0.531772 0.529311 0.526688 0.523943 0.521124 0.518279 0.515466 0.512743 0.510176 0.507833 0.505788 0.50412 0.502911 0.50225 0.501923 0.50168 0.501558 0.501591 0.501806 0.502229 0.50288 0.503776 0.504931 0.506351 0.508044 0.510009 0.512243 0.514739 0.517487 0.52047 0.52367 0.527065 0.530626 0.534324 0.538122 0.541982 0.545862 0.549714 0.553487 0.557126 0.560573 0.563765 0.566635 0.569112 0.571122 0.572585 0.574098 0.576214 0.578792 0.581698 0.584808 0.588003 0.591176 0.594224 0.597055 0.599582 0.60173 0.603428 0.604616 0.60524 0.605254 0.604622 0.603315 0.60131 0.598595 0.595165 0.591021 0.586175 0.580645 0.574459 0.56765 0.560261 0.552344 0.543956 0.535164 0.526043 0.516675 0.507152 0.497556 0.487928 0.478298 0.468696 0.459146 0.449671 0.440293 0.431031 0.421901 0.412916 0.404088 0.395427 0.386939 0.378629 0.370499 0.362548 0.354775 0.347175 0.339739 0.332459 0.325323 0.318315 0.311421 0.304619 0.29789 0.291209 0.284551 0.277886 0.271184 0.264412 0.257534
0.724705 0.730977 0.737517 0.744123 0.750611 0.756809 0.762564 0.767738 0.772209 0.775869 0.77863 0.780415 0.781167 0.780843 0.779414 0.776871 0.773219 0.768476 0.762681 0.755886 0.748158 0.739582 0.730258 0.720302 0.709846 0.699036 0.688037 0.677029 0.666205 0.655778 0.645974 0.637036 0.629224 0.622761 0.617634 0.613753 0.611029 0.609373 0.608697 0.608912 0.609931 0.611667 0.614031 0.616937 0.620299 0.624028 0.628041 0.63225 0.636569 0.640915 0.6452 0.649342 0.653255 0.656855 0.660058 0.662781 0.66494 0.666452 0.667234 0.667205 0.666281 0.66438 0.661422 0.657325 0.652007 0.645863 0.639432 0.632835 0.626187 0.619593 0.613147 0.606933 0.601026 0.595492 0.590385 0.585752 0.581629 0.57804 0.575003 0.572524 0.5706 0.569218 0.568354 0.567977 0.568043 0.568502 0.56929 0.570336 0.571559 0.572867 0.57416 0.575326 0.576245 0.576787 0.576812 0.576169 0.5747 0.572625 0.570303 0.56777 0.565062 0.562213 0.559256 0.556223 0.553145 0.550051 0.546969 0.543927 0.540949 0.538061 0.535285 0.532645 0.53016 0.52785 0.525734 0.523829 0.522151 0.520714 0.519533 0.518619 0.517983 0.517636 0.517586 0.51784 0.518405 0.519285 0.520485 0.522006 0.523851 0.525843 0.527775 0.529605 0.531293 0.532806 0.534113 0.535188 0.53601 0.536561 0.536828 0.536803 0.53648 0.53586 0.534948 0.53375 0.53228 0.530555 0.528596 0.526428 0.524082 0.521591 0.518993 0.516332 0.513654 0.51101 0.508456 0.506051 0.50386 0.501951 0.500395 0.499272 0.49866 0.498389 0.498252 0.498283 0.49851 0.49896 0.499652 0.500604 0.501829 0.503337 0.505131 0.507214 0.509582 0.512229 0.515144 0.518313 0.521715 0.52533 0.52913 0.533084 0.537158 0.541313 0.545507 0.549693 0.553821 0.557836 0.561679 0.565288 0.568597 0.571535 0.574028 0.575997 0.577361 0.578742 0.580723 0.583166 0.585939 0.588919 0.59199 0.595044 0.597981 0.60071 0.603144 0.605209 0.606836 0.607963 0.608538 0.608515 0.607858 0.606536 0.604528 0.601821 0.598407 0.59429 0.589478 0.58399 0.57785 0.571091 0.563756 0.555891 0.547556 0.538812 0.529734 0.520401 0.510902 0.501322 0.491709 0.482091 0.472498 0.462955 0.453484 0.444108 0.434845 0.425711 0.41672 0.407885 0.399214 0.390714 0.382391 0.374247 0.366281 0.358493 0.350876 0.343425 0.33613 0.32898 0.32196 0.315055 0.308247 0.301514 0.294833 0.288179 0.281525 0.27484 0.268091 0.261244
0.727508 0.733744 0.740207 0.746703 0.75305 0.759084 0.764655 0.769631 0.773892 0.777337 0.779879 0.781446 0.781983 0.78145 0.779823 0.777092 0.773265 0.768363 0.762425 0.755505 0.74767 0.739007 0.729616 0.719612 0.709126 0.698307 0.687317 0.676333 0.665551 0.655179 0.645443 0.636582 0.628855 0.622436 0.61727 0.613281 0.61039 0.608519 0.60759 0.607524 0.608243 0.609666 0.611716 0.614311 0.617371 0.620817 0.624568 0.628542 0.632659 0.636836 0.640993 0.645046 0.648914 0.652513 0.655762 0.658576 0.660872 0.662566 0.663574 0.663812 0.663195 0.661637 0.659054 0.655361 0.65047 0.644735 0.638654 0.632351 0.625939 0.619524 0.613201 0.607056 0.601166 0.595598 0.59041 0.58565 0.581358 0.577562 0.574283 0.571532 0.569309 0.567607 0.566409 0.565686 0.565404 0.565515 0.565964 0.566688 0.567612 0.568652 0.569716 0.5707 0.571494 0.571976 0.572016 0.571473 0.570198 0.568405 0.566429 0.564292 0.562017 0.559625 0.557139 0.55458 0.551968 0.549324 0.546669 0.544023 0.541404 0.538832 0.536326 0.533904 0.531584 0.529384 0.527322 0.525413 0.523675 0.522125 0.520776 0.519646 0.51875 0.518102 0.517716 0.517607 0.517788 0.518272 0.519073 0.520203 0.521674 0.523309 0.524895 0.526393 0.527766 0.528986 0.530022 0.530854 0.531459 0.531824 0.531936 0.531787 0.531373 0.530694 0.529754 0.528559 0.527123 0.525459 0.523588 0.521531 0.519318 0.516977 0.514544 0.512059 0.509562 0.507101 0.504726 0.502491 0.500454 0.498677 0.497227 0.496172 0.495587 0.495344 0.495285 0.49544 0.495835 0.496491 0.497425 0.49865 0.500176 0.502008 0.504148 0.506594 0.509338 0.512371 0.515678 0.519241 0.523037 0.52704 0.531219 0.535541 0.539968 0.544456 0.54896 0.55343 0.557812 0.562047 0.566073 0.569825 0.573232 0.576221 0.578713 0.580627 0.581876 0.583108 0.584936 0.587221 0.589836 0.592658 0.595575 0.598479 0.601274 0.603867 0.606176 0.608126 0.609648 0.610683 0.611178 0.611088 0.610377 0.609015 0.606979 0.604256 0.60084 0.596731 0.591938 0.586478 0.580375 0.573661 0.566375 0.558564 0.550283 0.541594 0.532568 0.523282 0.513822 0.50428 0.494709 0.485139 0.475597 0.466107 0.456694 0.447377 0.438174 0.429102 0.420174 0.411401 0.402793 0.394355 0.386094 0.37801 0.370104 0.362373 0.354813 0.347417 0.340175 0.333077 0.326107 0.319251 0.312489 0.305801 0.299164 0.292553 0.285941 0.279297 0.272589 0.265783
0.730181 0.736378 0.742764 0.749149 0.755359 0.761234 0.766629 0.771415 0.775479 0.778722 0.781061 0.782428 0.78277 0.782051 0.780248 0.777355 0.773379 0.768346 0.762294 0.755277 0.747366 0.738645 0.729215 0.719191 0.708705 0.697902 0.686944 0.676008 0.665286 0.654985 0.645328 0.636553 0.628913 0.622531 0.61731 0.613186 0.610093 0.607966 0.606736 0.606337 0.606698 0.607751 0.609424 0.611646 0.614344 0.617444 0.620873 0.624555 0.628414 0.632372 0.636351 0.640274 0.644058 0.647625 0.650892 0.653777 0.656196 0.658064 0.659297 0.659808 0.65951 0.658315 0.656133 0.652876 0.648453 0.643171 0.637488 0.631527 0.625401 0.619217 0.61307 0.607048 0.601228 0.595679 0.590462 0.585627 0.581217 0.577263 0.573791 0.570814 0.568339 0.566362 0.564872 0.563845 0.563253 0.563055 0.563204 0.563642 0.564301 0.565107 0.565975 0.566811 0.567513 0.567969 0.568057 0.567649 0.566605 0.565133 0.563542 0.561841 0.560037 0.55814 0.556159 0.554104 0.551987 0.549818 0.547609 0.545373 0.543123 0.540872 0.538634 0.536424 0.534257 0.53215 0.530118 0.528178 0.526348 0.524647 0.523092 0.521703 0.520499 0.519502 0.518732 0.51821 0.517958 0.518 0.518358 0.519056 0.520119 0.521366 0.522577 0.523718 0.524755 0.525662 0.526414 0.52699 0.527372 0.527546 0.527502 0.527231 0.52673 0.525999 0.525041 0.523863 0.522474 0.520887 0.519121 0.517194 0.515132 0.51296 0.510711 0.508418 0.506118 0.503853 0.501667 0.499609 0.49773 0.496084 0.49473 0.49373 0.493149 0.492908 0.4929 0.493152 0.493684 0.494516 0.49566 0.497127 0.498921 0.501047 0.5035 0.506275 0.509363 0.512748 0.516414 0.520338 0.524494 0.528853 0.533381 0.53804 0.542788 0.54758 0.552365 0.557091 0.5617 0.56613 0.570315 0.574187 0.577671 0.58069 0.583164 0.585006 0.586127 0.587196 0.588851 0.590959 0.593392 0.596032 0.598768 0.601495 0.604118 0.606547 0.608702 0.610507 0.611896 0.61281 0.613198 0.613015 0.612225 0.610799 0.608714 0.605956 0.602519 0.598404 0.593617 0.588175 0.582102 0.575426 0.568187 0.560429 0.552206 0.543578 0.534613 0.525386 0.51598 0.506495 0.496993 0.487503 0.478049 0.468658 0.459349 0.450143 0.441057 0.432105 0.423301 0.414654 0.406173 0.397865 0.389732 0.381776 0.373997 0.366391 0.358952 0.351675 0.344548 0.33756 0.330696 0.32394 0.317273 0.310675 0.304121 0.297587 0.291044 0.284463 0.277812 0.271055
0.732657 0.738813 0.745122 0.751401 0.757479 0.763203 0.768433 0.773043 0.776926 0.779985 0.782142 0.783331 0.783504 0.782625 0.780675 0.777648 0.773555 0.768422 0.762288 0.755208 0.747252 0.738506 0.72907 0.719058 0.7086 0.697841 0.686942 0.676076 0.665434 0.655221 0.645656 0.636974 0.629424 0.623074 0.617782 0.6135 0.610174 0.607753 0.60618 0.6054 0.605354 0.605983 0.607225 0.609019 0.611299 0.613999 0.617053 0.620391 0.623943 0.627636 0.631396 0.635149 0.638817 0.642321 0.645583 0.648519 0.651048 0.653083 0.654539 0.655328 0.65536 0.654544 0.652788 0.649997 0.646075 0.641286 0.636043 0.630469 0.624676 0.618771 0.612849 0.606999 0.601299 0.59582 0.590624 0.585764 0.581285 0.577223 0.573605 0.570449 0.567767 0.565559 0.563819 0.56253 0.561668 0.5612 0.561085 0.561272 0.561703 0.562309 0.563015 0.563735 0.564377 0.564838 0.565008 0.564767 0.563987 0.56287 0.561699 0.560468 0.559169 0.557797 0.556351 0.554828 0.553228 0.551553 0.549806 0.547992 0.546116 0.544187 0.542214 0.540208 0.538182 0.536149 0.534125 0.532128 0.530175 0.528289 0.52649 0.524801 0.523249 0.521858 0.520659 0.51968 0.518952 0.518509 0.518384 0.518615 0.519237 0.52007 0.520883 0.521645 0.522329 0.522909 0.523366 0.523678 0.523832 0.523813 0.523613 0.523225 0.522644 0.521871 0.520907 0.519758 0.518432 0.51694 0.515296 0.513518 0.511626 0.509642 0.507594 0.50551 0.503423 0.501367 0.499382 0.497507 0.495788 0.494271 0.493007 0.492048 0.491451 0.491187 0.491203 0.491522 0.492162 0.493137 0.494458 0.496132 0.49816 0.500542 0.503271 0.506338 0.50973 0.51343 0.517416 0.521662 0.526141 0.530818 0.535656 0.540615 0.545649 0.550709 0.555742 0.560691 0.565496 0.570091 0.574408 0.578374 0.581912 0.584941 0.587377 0.589131 0.590111 0.591004 0.592471 0.594382 0.596613 0.599049 0.601581 0.604107 0.606533 0.608773 0.610746 0.612381 0.613612 0.614381 0.614638 0.61434 0.61345 0.611939 0.609786 0.606977 0.603505 0.599369 0.594578 0.589146 0.583095 0.576455 0.569261 0.561558 0.553397 0.544836 0.53594 0.526783 0.517445 0.508035 0.498626 0.489245 0.479915 0.47066 0.461499 0.45245 0.44353 0.434751 0.426126 0.417662 0.409368 0.401247 0.393303 0.385535 0.377942 0.370519 0.363261 0.356158 0.349201 0.342375 0.335667 0.329058 0.322529 0.316059 0.309623 0.303195 0.296747 0.290248 0.283667 0.276966
0.734872 0.740987 0.747224 0.753402 0.759358 0.764942 0.770021 0.774473 0.778194 0.781092 0.783091 0.78413 0.784161 0.783153 0.781087 0.777961 0.773785 0.768587 0.762407 0.7553 0.747336 0.7386 0.729191 0.719224 0.708826 0.698142 0.687328 0.676557 0.666016 0.655907 0.646446 0.637864 0.630407 0.624083 0.618707 0.614245 0.61066 0.607912 0.605958 0.604756 0.604259 0.604418 0.605182 0.606499 0.608313 0.610566 0.613198 0.616147 0.619349 0.622736 0.62624 0.629789 0.63331 0.636727 0.639961 0.642932 0.645558 0.647754 0.649432 0.650502 0.650873 0.650451 0.64914 0.64684 0.643451 0.639189 0.634424 0.629276 0.623859 0.618277 0.612626 0.606994 0.601461 0.5961 0.590973 0.586135 0.581635 0.57751 0.573793 0.570504 0.567659 0.565263 0.563315 0.561805 0.560713 0.560014 0.559672 0.559645 0.559881 0.56032 0.560896 0.561533 0.562146 0.562643 0.562923 0.56288 0.562394 0.561662 0.560941 0.560209 0.559443 0.558625 0.557738 0.556768 0.555704 0.554538 0.553264 0.551878 0.550381 0.548773 0.54706 0.545248 0.543348 0.541373 0.539336 0.537255 0.535152 0.533049 0.530971 0.528947 0.527007 0.525184 0.523515 0.522039 0.520796 0.519831 0.519189 0.51892 0.519076 0.519471 0.519865 0.520232 0.520548 0.520791 0.520944 0.520988 0.520912 0.520702 0.52035 0.519851 0.519199 0.518395 0.517438 0.516333 0.515086 0.513706 0.512203 0.510592 0.508888 0.507111 0.505282 0.503424 0.501564 0.49973 0.497955 0.496271 0.494714 0.493325 0.492143 0.491213 0.490582 0.49027 0.490284 0.490641 0.491357 0.492443 0.493906 0.49575 0.497973 0.50057 0.503534 0.506852 0.510506 0.514477 0.518739 0.523265 0.528023 0.532975 0.538081 0.543298 0.548577 0.553866 0.559108 0.564244 0.569211 0.573938 0.578356 0.582388 0.585954 0.58897 0.59135 0.593 0.593826 0.59453 0.595795 0.597493 0.599505 0.601717 0.604024 0.606328 0.608536 0.610564 0.612335 0.613778 0.614829 0.615433 0.615539 0.615105 0.614097 0.612485 0.610249 0.607375 0.603855 0.59969 0.594885 0.589456 0.583424 0.576816 0.569667 0.562021 0.553926 0.545438 0.53662 0.527544 0.518286 0.508968 0.499674 0.490428 0.481252 0.472168 0.463193 0.454344 0.445633 0.437074 0.428676 0.420445 0.412388 0.404507 0.396803 0.389276 0.381921 0.374734 0.367706 0.360828 0.354087 0.34747 0.34096 0.334538 0.328185 0.321876 0.315588 0.309293 0.302961 0.296562 0.290061 0.283423
0.736773 0.742849 0.749017 0.755102 0.760947 0.766407 0.771353 0.775667 0.779249 0.782012 0.783882 0.7848 0.784723 0.783619 0.781473 0.778284 0.774063 0.768838 0.762649 0.755553 0.747619 0.738931 0.729586 0.719698 0.709394 0.698813 0.688112 0.677461 0.667042 0.657054 0.64771 0.639236 0.631873 0.62557 0.620099 0.615439 0.611571 0.608467 0.606102 0.604443 0.603456 0.603106 0.603352 0.60415 0.605456 0.60722 0.60939 0.611912 0.614726 0.617773 0.620988 0.624305 0.627653 0.630959 0.634148 0.637139 0.639852 0.642202 0.644099 0.645454 0.646171 0.646155 0.645304 0.643517 0.640686 0.636981 0.632726 0.628041 0.623037 0.617818 0.612479 0.607109 0.601787 0.596587 0.591574 0.586804 0.582328 0.578186 0.574413 0.571035 0.56807 0.565529 0.563415 0.561723 0.560441 0.559548 0.559016 0.55881 0.558885 0.559191 0.559669 0.560252 0.560866 0.561427 0.561847 0.562027 0.561862 0.56154 0.561296 0.561089 0.560879 0.560636 0.560327 0.559927 0.559413 0.558767 0.557974 0.557022 0.555903 0.554614 0.553154 0.551526 0.549739 0.547803 0.545732 0.543545 0.541265 0.538916 0.536528 0.534135 0.531773 0.529483 0.52731 0.525302 0.52351 0.521989 0.5208 0.520005 0.519671 0.519609 0.519569 0.519527 0.519465 0.519364 0.519208 0.518983 0.518677 0.518279 0.517783 0.51718 0.516468 0.515644 0.514709 0.513663 0.512512 0.511261 0.509917 0.508491 0.506995 0.505442 0.503849 0.502233 0.500614 0.499015 0.497458 0.495971 0.49458 0.493316 0.492211 0.491299 0.490615 0.490234 0.490219 0.490586 0.491346 0.492508 0.494076 0.49605 0.498427 0.501198 0.504353 0.507875 0.511745 0.515939 0.520431 0.525189 0.530178 0.535358 0.540686 0.546115 0.551594 0.557068 0.562478 0.567761 0.57285 0.577675 0.582161 0.586229 0.589796 0.592776 0.595079 0.596609 0.597269 0.597775 0.598825 0.600297 0.602073 0.604046 0.606111 0.608175 0.610147 0.611945 0.613495 0.614727 0.615581 0.616002 0.61594 0.615356 0.614215 0.612489 0.610158 0.607207 0.60363 0.599427 0.594603 0.589173 0.583156 0.576579 0.569477 0.561889 0.553864 0.545456 0.536725 0.527739 0.518575 0.509364 0.500203 0.491116 0.482122 0.473239 0.464483 0.455868 0.447406 0.439107 0.430977 0.423022 0.415246 0.40765 0.400232 0.39299 0.385919 0.379011 0.372257 0.365645 0.359162 0.352792 0.346517 0.340317 0.334171 0.328053 0.321938 0.315797 0.309599 0.303313 0.296903 0.290332
0.738312 0.744352 0.750457 0.75646 0.762207 0.76756 0.772393 0.776593 0.780063 0.782719 0.78449 0.785322 0.78517 0.784008 0.78182 0.778607 0.77438 0.769169 0.763013 0.755968 0.748103 0.7395 0.730257 0.720484 0.710306 0.699861 0.689302 0.678794 0.668519 0.658669 0.649454 0.641095 0.633827 0.627541 0.621964 0.617092 0.61292 0.609438 0.606633 0.604488 0.602982 0.602089 0.601782 0.602028 0.602791 0.604032 0.605707 0.607768 0.610165 0.612842 0.615742 0.618801 0.621954 0.62513 0.628257 0.631256 0.634047 0.636544 0.638659 0.640299 0.641369 0.641767 0.641391 0.640133 0.637882 0.634758 0.631042 0.62685 0.622293 0.617472 0.612482 0.607412 0.602342 0.597345 0.592487 0.587828 0.583418 0.579301 0.575516 0.57209 0.569047 0.566402 0.564162 0.562327 0.560893 0.559843 0.559157 0.558806 0.558755 0.558959 0.55937 0.559928 0.56057 0.561222 0.561806 0.562234 0.562413 0.562525 0.562779 0.563115 0.563482 0.563829 0.564114 0.564297 0.564343 0.564225 0.563916 0.563399 0.562657 0.561681 0.560466 0.559012 0.557324 0.55541 0.553287 0.550971 0.548489 0.545868 0.543143 0.540352 0.537539 0.534752 0.532044 0.529474 0.527104 0.525002 0.52324 0.521897 0.521054 0.52052 0.520032 0.519573 0.519126 0.518676 0.51821 0.517717 0.517184 0.516605 0.51597 0.515275 0.514514 0.513684 0.512784 0.511814 0.510775 0.50967 0.508503 0.50728 0.506009 0.504697 0.503356 0.501997 0.500632 0.499278 0.497949 0.496664 0.495441 0.494302 0.493267 0.492362 0.491609 0.491138 0.49107 0.491417 0.49219 0.493392 0.495027 0.497091 0.499578 0.502478 0.505777 0.509455 0.513492 0.51786 0.522531 0.527469 0.532637 0.537994 0.543493 0.549085 0.554716 0.560329 0.565862 0.571249 0.576421 0.581305 0.585824 0.589896 0.593437 0.596356 0.598562 0.599957 0.60044 0.600738 0.601563 0.602796 0.604325 0.606044 0.607854 0.609662 0.611383 0.612937 0.614252 0.61526 0.615902 0.616126 0.615884 0.615138 0.613853 0.612002 0.609566 0.606532 0.602891 0.598644 0.593797 0.588362 0.582359 0.575815 0.56876 0.561235 0.553285 0.544963 0.536327 0.527442 0.518381 0.509291 0.500283 0.491375 0.482585 0.473929 0.465421 0.457071 0.44889 0.440883 0.433057 0.425414 0.417956 0.410682 0.403588 0.396669 0.389919 0.383327 0.376882 0.370572 0.36438 0.35829 0.35228 0.346331 0.340417 0.334513 0.328592 0.322623 0.316575 0.310413 0.304101 0.2976
0.739448 0.745455 0.751505 0.757438 0.763105 0.76837 0.773112 0.777224 0.78061 0.78319 0.784897 0.785677 0.785489 0.784307 0.782118 0.778921 0.774731 0.769574 0.763493 0.75654 0.748784 0.740307 0.731204 0.721582 0.711564 0.701286 0.690896 0.680557 0.670446 0.660751 0.651676 0.643439 0.636268 0.629995 0.624302 0.619205 0.614714 0.610835 0.60757 0.604915 0.602863 0.601402 0.600515 0.600181 0.600375 0.601065 0.602217 0.603793 0.605747 0.608031 0.610593 0.613375 0.616315 0.619346 0.622397 0.625393 0.628253 0.630893 0.633223 0.63515 0.636575 0.637396 0.637504 0.636788 0.635132 0.63261 0.629455 0.625783 0.6217 0.617308 0.612701 0.607966 0.603183 0.598427 0.593763 0.589253 0.584949 0.580898 0.57714 0.573706 0.570625 0.567914 0.565587 0.563648 0.562098 0.560927 0.560122 0.55966 0.559514 0.559647 0.56002 0.560582 0.561278 0.562046 0.562816 0.563514 0.564056 0.564619 0.565388 0.566286 0.567242 0.568193 0.569082 0.569855 0.570468 0.57088 0.571058 0.570973 0.570605 0.569936 0.568957 0.567665 0.566062 0.564156 0.561961 0.559497 0.556792 0.553877 0.550791 0.547577 0.544288 0.540978 0.53771 0.534553 0.531581 0.528875 0.526521 0.524612 0.523247 0.522229 0.521285 0.520402 0.519566 0.518767 0.517992 0.517233 0.516481 0.515727 0.514964 0.514186 0.513389 0.512567 0.511718 0.510839 0.509929 0.508987 0.508014 0.507011 0.505981 0.504926 0.503852 0.502762 0.501664 0.500565 0.499471 0.498393 0.49734 0.496323 0.495354 0.494445 0.493609 0.493029 0.492883 0.493182 0.493935 0.495142 0.496805 0.498917 0.50147 0.504452 0.507845 0.51163 0.515781 0.52027 0.525066 0.530131 0.535426 0.540906 0.546523 0.552226 0.557958 0.56366 0.569268 0.574714 0.579927 0.58483 0.589346 0.59339 0.596874 0.599708 0.601797 0.603041 0.603338 0.603419 0.60401 0.604995 0.606266 0.607721 0.609265 0.610808 0.612267 0.613565 0.614633 0.615406 0.615827 0.615844 0.615413 0.614496 0.613059 0.611077 0.608531 0.605407 0.601698 0.597405 0.592533 0.587093 0.581105 0.574594 0.56759 0.560132 0.552263 0.544033 0.5355 0.526725 0.517778 0.508822 0.49998 0.491269 0.482703 0.474296 0.466059 0.457999 0.450124 0.442439 0.434945 0.427643 0.420533 0.413611 0.40687 0.400305 0.393905 0.387658 0.381553 0.375571 0.369698 0.363912 0.358192 0.352515 0.346855 0.341184 0.335473 0.32969 0.323802 0.317772 0.311563 0.305136
0.740147 0.746126 0.752132 0.758008 0.763611 0.768809 0.773486 0.777537 0.78087 0.783409 0.785087 0.785852 0.785667 0.784506 0.782356 0.779218 0.775107 0.770048 0.764083 0.757265 0.74966 0.741348 0.732421 0.722986 0.713162 0.703081 0.692889 0.682743 0.672815 0.663292 0.654369 0.646259 0.639186 0.632921 0.627107 0.621775 0.616952 0.612662 0.60892 0.605739 0.603123 0.601074 0.599587 0.598653 0.598256 0.598375 0.598985 0.600054 0.601547 0.60342 0.605628 0.608117 0.61083 0.613703 0.616669 0.619653 0.622576 0.625354 0.627897 0.63011 0.631893 0.633139 0.633739 0.633575 0.632526 0.630619 0.628044 0.624911 0.621327 0.617391 0.613194 0.608824 0.604361 0.599879 0.595444 0.591119 0.586957 0.583009 0.579315 0.575912 0.572829 0.57009 0.567712 0.565705 0.564074 0.562817 0.561926 0.561385 0.561174 0.561267 0.561629 0.56222 0.562995 0.563901 0.564879 0.565864 0.566785 0.567815 0.569112 0.570581 0.572137 0.5737 0.575199 0.576567 0.577748 0.578692 0.579353 0.579698 0.579696 0.579327 0.578575 0.577433 0.575902 0.573988 0.571706 0.569078 0.566131 0.562902 0.559435 0.555779 0.551992 0.548139 0.544291 0.540528 0.536937 0.53361 0.530649 0.528162 0.526263 0.524754 0.523349 0.522039 0.520815 0.519667 0.518588 0.51757 0.516605 0.515685 0.514805 0.513958 0.513137 0.512337 0.511554 0.510781 0.510016 0.509253 0.50849 0.507723 0.506949 0.506165 0.505371 0.504563 0.503742 0.502905 0.502053 0.501186 0.500304 0.499407 0.498497 0.497575 0.496644 0.495935 0.495689 0.495914 0.496614 0.497791 0.499442 0.501559 0.504133 0.507149 0.510587 0.514425 0.518638 0.523193 0.528058 0.533194 0.538559 0.544107 0.549787 0.555547 0.561327 0.567067 0.572701 0.57816 0.583369 0.588251 0.592726 0.596707 0.600106 0.60283 0.604782 0.60586 0.605961 0.60582 0.60617 0.606899 0.607905 0.609089 0.610358 0.611627 0.612816 0.613852 0.614666 0.615197 0.61539 0.615195 0.61457 0.613476 0.611884 0.609767 0.607107 0.603892 0.600115 0.595775 0.590877 0.585435 0.579464 0.572989 0.566041 0.558654 0.550871 0.542741 0.534318 0.525662 0.51684 0.508027 0.499364 0.490865 0.48254 0.474399 0.466451 0.458701 0.451153 0.443809 0.43667 0.429732 0.422992 0.416444 0.41008 0.40389 0.397863 0.391984 0.386238 0.380607 0.375071 0.369608 0.364196 0.358807 0.353416 0.347991 0.342502 0.336915 0.331194 0.325303 0.319201 0.312848
0.740381 0.746338 0.75231 0.758145 0.763704 0.768859 0.773497 0.777516 0.780829 0.78336 0.785046 0.785836 0.785694 0.784595 0.782527 0.779491 0.775501 0.770584 0.764778 0.758135 0.750721 0.742613 0.733901 0.724689 0.715091 0.705237 0.695268 0.685339 0.675615 0.666277 0.657517 0.64954 0.642564 0.636305 0.630364 0.62479 0.619628 0.614917 0.610688 0.606967 0.603776 0.601126 0.599026 0.597478 0.596476 0.596011 0.596065 0.596616 0.597634 0.599085 0.600927 0.603113 0.605589 0.608296 0.611168 0.614133 0.617114 0.620026 0.622779 0.625277 0.627417 0.629092 0.630186 0.630579 0.630144 0.628862 0.626879 0.624302 0.621236 0.617776 0.614014 0.610035 0.605919 0.601739 0.597564 0.593456 0.58947 0.585657 0.582062 0.578723 0.575674 0.572942 0.570547 0.568506 0.566828 0.565517 0.564571 0.563982 0.563736 0.563815 0.564192 0.564837 0.565713 0.566776 0.56798 0.569268 0.570581 0.572088 0.573922 0.575971 0.578132 0.58031 0.582421 0.584384 0.586132 0.587603 0.588745 0.589513 0.589871 0.589791 0.589256 0.588254 0.586782 0.584848 0.582465 0.579656 0.576453 0.572895 0.569031 0.564917 0.560617 0.556206 0.551764 0.547382 0.543158 0.539199 0.535621 0.532547 0.530109 0.528105 0.526238 0.524502 0.522891 0.521401 0.520024 0.518754 0.517585 0.516511 0.515526 0.514621 0.51379 0.513027 0.512324 0.511673 0.511067 0.510499 0.509959 0.509442 0.508937 0.508437 0.507934 0.507418 0.506882 0.506315 0.50571 0.505056 0.504344 0.503565 0.502709 0.501766 0.500727 0.499874 0.499506 0.499628 0.500245 0.501356 0.502956 0.505036 0.507585 0.510585 0.514017 0.517857 0.522076 0.526642 0.53152 0.536669 0.542047 0.547605 0.553292 0.559053 0.564828 0.570553 0.576163 0.581586 0.586746 0.591566 0.595962 0.599847 0.603131 0.60572 0.607515 0.608414 0.60831 0.607941 0.608045 0.608514 0.609249 0.610157 0.611147 0.612138 0.613054 0.613822 0.614379 0.614666 0.614628 0.614219 0.613397 0.612126 0.610377 0.608126 0.605353 0.602048 0.598203 0.593819 0.588899 0.583456 0.577507 0.571073 0.564185 0.556875 0.549186 0.541163 0.532857 0.524328 0.515638 0.50698 0.498507 0.49023 0.482158 0.474296 0.466651 0.459225 0.452019 0.445032 0.438261 0.431702 0.425348 0.41919 0.413218 0.407419 0.401779 0.396282 0.39091 0.385642 0.380456 0.375329 0.370235 0.365146 0.360032 0.354862 0.349601 0.344216 0.338668 0.332918 0.326924 0.320645
0.74013 0.746073 0.752024 0.757834 0.763369 0.768504 0.773131 0.77715 0.780476 0.783035 0.784766 0.78562 0.785562 0.784567 0.782623 0.779732 0.775907 0.771173 0.765568 0.759142 0.751959 0.744093 0.735632 0.726675 0.717336 0.707738 0.698018 0.688327 0.678825 0.669686 0.661098 0.65326 0.646381 0.640124 0.634052 0.628232 0.622726 0.617589 0.612867 0.608603 0.604829 0.601573 0.598854 0.596685 0.595073 0.594017 0.593508 0.593534 0.594072 0.595093 0.596563 0.59844 0.600673 0.603208 0.605982 0.608924 0.611958 0.615 0.617961 0.620742 0.623239 0.625341 0.62693 0.627881 0.628062 0.627409 0.626026 0.624016 0.62148 0.618513 0.615204 0.611637 0.607891 0.604039 0.60015 0.596286 0.592504 0.588857 0.585392 0.582149 0.579165 0.576471 0.574092 0.572048 0.570354 0.569019 0.568048 0.567439 0.567185 0.567275 0.567692 0.568413 0.569409 0.570649 0.572092 0.573696 0.575411 0.577402 0.579777 0.582408 0.585176 0.58797 0.59069 0.593245 0.595555 0.597548 0.599162 0.600345 0.601054 0.601256 0.600926 0.600053 0.59863 0.596663 0.594167 0.591167 0.587696 0.583797 0.579525 0.574942 0.570119 0.56514 0.560095 0.555086 0.550223 0.545627 0.541427 0.537763 0.534783 0.532285 0.529957 0.5278 0.525809 0.523982 0.522315 0.520804 0.519443 0.518227 0.517148 0.516199 0.515372 0.514659 0.51405 0.513534 0.513102 0.512741 0.512438 0.512182 0.511958 0.511753 0.51155 0.511334 0.511089 0.510797 0.51044 0.510001 0.509459 0.508795 0.507988 0.507016 0.505857 0.504846 0.504334 0.504329 0.504833 0.505842 0.507352 0.509353 0.51183 0.514767 0.518142 0.521929 0.526099 0.53062 0.535453 0.540558 0.545891 0.551402 0.557038 0.562744 0.568459 0.574117 0.579652 0.584991 0.590058 0.594772 0.599051 0.602806 0.605946 0.608376 0.609995 0.6107 0.610385 0.609785 0.609639 0.609845 0.610308 0.610936 0.611646 0.612359 0.613 0.613502 0.613802 0.613844 0.613577 0.612955 0.611939 0.610494 0.608591 0.606208 0.603326 0.599934 0.596027 0.591602 0.586666 0.581228 0.575306 0.568919 0.562097 0.554872 0.547283 0.539374 0.531194 0.522799 0.51425 0.505754 0.497479 0.489433 0.481622 0.474048 0.466715 0.459621 0.452765 0.446144 0.439751 0.433579 0.427619 0.421859 0.416286 0.410886 0.405641 0.400532 0.39554 0.390642 0.385812 0.381026 0.376255 0.371469 0.366637 0.361724 0.356695 0.351512 0.346138 0.340529 0.334644 0.328437
0.739381 0.745319 0.751261 0.757064 0.762596 0.767738 0.772382 0.776432 0.779804 0.782427 0.784242 0.7852 0.785266 0.784416 0.782639 0.779935 0.776316 0.771807 0.766444 0.760275 0.75336 0.745773 0.737597 0.728929 0.719877 0.710562 0.701115 0.691682 0.682418 0.673492 0.665085 0.657388 0.650606 0.644348 0.638143 0.632076 0.626225 0.620662 0.615448 0.61064 0.606285 0.602422 0.599085 0.596296 0.594074 0.592427 0.591357 0.590857 0.590914 0.591506 0.592603 0.594169 0.596159 0.59852 0.601193 0.60411 0.607194 0.610365 0.613529 0.61659 0.61944 0.621967 0.624048 0.625554 0.626348 0.626324 0.625543 0.624105 0.622109 0.619645 0.616803 0.613663 0.610305 0.606801 0.603219 0.599623 0.59607 0.592615 0.589306 0.586187 0.583296 0.580669 0.578334 0.576316 0.574634 0.573303 0.572334 0.571731 0.571495 0.57162 0.572098 0.572914 0.574049 0.575479 0.577176 0.579105 0.581227 0.583705 0.586623 0.589836 0.593206 0.596611 0.599935 0.603076 0.60594 0.608446 0.610523 0.612112 0.613161 0.613633 0.6135 0.612745 0.611361 0.609352 0.606735 0.603534 0.599787 0.595541 0.590855 0.585796 0.580447 0.574895 0.569245 0.563606 0.558103 0.552868 0.548047 0.543795 0.540277 0.537288 0.534506 0.531933 0.529571 0.527418 0.525472 0.523731 0.52219 0.520843 0.519684 0.518704 0.517895 0.517245 0.516743 0.516375 0.516128 0.515986 0.515931 0.515947 0.516013 0.516108 0.516213 0.516302 0.516352 0.516337 0.516232 0.516006 0.515632 0.515079 0.514314 0.513306 0.512019 0.510835 0.510162 0.510005 0.510365 0.51124 0.512622 0.514501 0.516862 0.519687 0.522954 0.526636 0.530703 0.535122 0.539853 0.544857 0.550086 0.555492 0.561021 0.566616 0.572215 0.577754 0.583163 0.58837 0.593298 0.597867 0.601991 0.605583 0.608549 0.610795 0.61222 0.61272 0.612187 0.611353 0.610956 0.610898 0.611088 0.611439 0.611871 0.612307 0.612676 0.612915 0.612963 0.612766 0.612274 0.611445 0.61024 0.608627 0.606577 0.604068 0.601084 0.597614 0.59365 0.589193 0.584247 0.578822 0.572934 0.566603 0.559855 0.552721 0.54524 0.537451 0.529404 0.521151 0.512751 0.504423 0.496353 0.488543 0.480998 0.473716 0.466698 0.45994 0.453438 0.447184 0.44117 0.435387 0.429821 0.42446 0.419287 0.414285 0.409435 0.404715 0.400102 0.395572 0.391097 0.386651 0.382201 0.377717 0.373163 0.368506 0.363706 0.358724 0.35352 0.348051 0.342271 0.336133
0.738126 0.744068 0.750016 0.755831 0.761384 0.766557 0.771247 0.77536 0.778813 0.781537 0.783473 0.784574 0.784804 0.78414 0.78257 0.780094 0.776722 0.772477 0.767395 0.76152 0.754911 0.747637 0.739778 0.731429 0.722692 0.713683 0.704531 0.695374 0.686363 0.677661 0.66944 0.661888 0.655201 0.648941 0.642602 0.636289 0.630097 0.624112 0.618412 0.613066 0.608137 0.603675 0.599727 0.596327 0.593502 0.591272 0.589647 0.588628 0.58821 0.588377 0.589106 0.590365 0.592114 0.594303 0.596876 0.599767 0.602902 0.606198 0.609564 0.6129 0.616099 0.619044 0.621611 0.623665 0.625065 0.625665 0.625482 0.624617 0.623162 0.621208 0.61884 0.616139 0.613181 0.61004 0.606782 0.603472 0.600168 0.596926 0.593796 0.590824 0.588051 0.585516 0.58325 0.581283 0.579639 0.578338 0.577396 0.576822 0.576625 0.576807 0.577366 0.578294 0.579583 0.581216 0.583175 0.585435 0.587969 0.590933 0.594391 0.598179 0.602147 0.606154 0.610073 0.613788 0.617195 0.620204 0.622733 0.624715 0.626095 0.626827 0.62688 0.626234 0.624881 0.622823 0.620078 0.616672 0.612645 0.608049 0.602947 0.597414 0.591537 0.585416 0.579162 0.572899 0.56676 0.560893 0.555457 0.550623 0.546574 0.543101 0.539873 0.536896 0.534173 0.531705 0.529494 0.527535 0.525827 0.524364 0.523138 0.522141 0.521361 0.520787 0.520403 0.520195 0.520143 0.520229 0.52043 0.520724 0.521086 0.521489 0.521904 0.522301 0.522648 0.522911 0.523055 0.523041 0.522831 0.522384 0.521657 0.520605 0.519182 0.517814 0.516961 0.51663 0.516819 0.517526 0.518743 0.52046 0.522661 0.525327 0.528436 0.531961 0.535871 0.540132 0.544706 0.549551 0.55462 0.559865 0.56523 0.570658 0.576088 0.581455 0.586689 0.591717 0.596462 0.600843 0.604776 0.608172 0.610937 0.612977 0.61419 0.614473 0.613717 0.612648 0.612 0.61168 0.611601 0.611678 0.611836 0.612001 0.612106 0.612089 0.611892 0.611464 0.610757 0.60973 0.608346 0.606574 0.604387 0.601763 0.598687 0.595147 0.591138 0.586659 0.581713 0.57631 0.570466 0.564198 0.557533 0.5505 0.543133 0.535474 0.527567 0.519463 0.511216 0.503063 0.495201 0.48763 0.480352 0.473362 0.466658 0.460234 0.454081 0.448191 0.442552 0.437151 0.431974 0.427005 0.422225 0.417614 0.41315 0.40881 0.404568 0.400398 0.396271 0.392155 0.388019 0.383828 0.379546 0.375136 0.370559 0.365772 0.360733 0.355397 0.349717 0.343646
0.736366 0.742323 0.748293 0.754138 0.759734 0.764966 0.769731 0.773938 0.777506 0.780366 0.78246 0.783742 0.784175 0.783736 0.782413 0.780203 0.777116 0.773174 0.768408 0.762863 0.756592 0.749662 0.742151 0.734147 0.725749 0.71707 0.708231 0.699366 0.690621 0.682151 0.674123 0.666718 0.660124 0.653857 0.647387 0.640833 0.634306 0.627908 0.621732 0.615862 0.610372 0.605326 0.600781 0.596784 0.593372 0.590573 0.588407 0.586883 0.586002 0.585756 0.586126 0.587087 0.588601 0.590624 0.593101 0.595969 0.599153 0.602573 0.606137 0.609744 0.613286 0.616641 0.619684 0.622276 0.62427 0.625481 0.62589 0.625591 0.624675 0.62323 0.621339 0.619081 0.616531 0.613761 0.610839 0.607829 0.604789 0.601777 0.598844 0.596038 0.593404 0.590981 0.588807 0.586914 0.58533 0.58408 0.583185 0.582663 0.582525 0.582781 0.583437 0.584493 0.585948 0.587794 0.590022 0.592616 0.59556 0.599006 0.602998 0.607353 0.611907 0.616504 0.621005 0.625281 0.629219 0.632716 0.635684 0.638048 0.639746 0.640728 0.640958 0.640414 0.639084 0.636974 0.634098 0.630485 0.626179 0.621235 0.61572 0.609717 0.603321 0.596639 0.589791 0.582912 0.576149 0.569661 0.563622 0.558218 0.553647 0.549703 0.546042 0.542673 0.539603 0.536836 0.534372 0.532211 0.53035 0.528784 0.527504 0.526502 0.525764 0.525276 0.525021 0.52498 0.525132 0.525452 0.525915 0.526493 0.527154 0.527865 0.528592 0.529297 0.529939 0.530477 0.530867 0.531061 0.53101 0.530663 0.529967 0.528865 0.527299 0.525737 0.524689 0.524162 0.524154 0.524662 0.52568 0.527195 0.529194 0.531655 0.534558 0.537876 0.541577 0.545627 0.549989 0.55462 0.559473 0.5645 0.569647 0.574855 0.580064 0.585208 0.590218 0.595021 0.599541 0.603696 0.607401 0.610569 0.613107 0.614919 0.615904 0.61596 0.614977 0.613673 0.612777 0.612198 0.611854 0.611666 0.611558 0.611461 0.611312 0.61105 0.61062 0.609973 0.609064 0.607852 0.606303 0.604385 0.602074 0.599349 0.596194 0.592599 0.588557 0.584067 0.579134 0.573765 0.567975 0.561782 0.55521 0.548286 0.541043 0.533521 0.525761 0.517811 0.509724 0.501749 0.494097 0.486765 0.479751 0.473049 0.466653 0.460554 0.454742 0.449204 0.443929 0.438899 0.434097 0.429506 0.425103 0.420868 0.416775 0.4128 0.408914 0.405088 0.401292 0.397492 0.393655 0.389743 0.38572 0.381546 0.377179 0.372576 0.367692 0.362482 0.356897 0.350886
0.734108 0.740091 0.746098 0.751994 0.757657 0.762974 0.767844 0.772176 0.775892 0.778923 0.78121 0.782709 0.783382 0.783205 0.782165 0.780258 0.777492 0.773886 0.769471 0.764286 0.758384 0.751827 0.744689 0.737054 0.729017 0.720685 0.712176 0.703616 0.695146 0.686915 0.679084 0.671826 0.665322 0.659048 0.652449 0.645661 0.63881 0.632013 0.625378 0.619002 0.61297 0.607362 0.602242 0.59767 0.593693 0.590347 0.58766 0.585651 0.584326 0.583683 0.58371 0.584386 0.585677 0.587542 0.58993 0.592778 0.596014 0.599557 0.603316 0.607189 0.611064 0.61482 0.618326 0.621441 0.624013 0.625819 0.626805 0.627061 0.626676 0.625734 0.624316 0.6225 0.62036 0.617966 0.615385 0.612682 0.609917 0.607146 0.604423 0.601798 0.599318 0.597026 0.59496 0.593159 0.591653 0.590473 0.589645 0.58919 0.589128 0.589474 0.590241 0.591437 0.593067 0.595133 0.597633 0.600562 0.603912 0.607833 0.612347 0.617257 0.622382 0.627555 0.632621 0.637443 0.641894 0.645864 0.649257 0.651989 0.653993 0.655215 0.655614 0.655165 0.653856 0.65169 0.648684 0.644868 0.640287 0.635002 0.629085 0.622623 0.61572 0.60849 0.601064 0.593586 0.586216 0.579124 0.572499 0.566541 0.561466 0.557064 0.552986 0.549242 0.545842 0.54279 0.54009 0.537741 0.535742 0.534086 0.532766 0.53177 0.531084 0.530692 0.530574 0.530708 0.531068 0.531627 0.532354 0.533216 0.534176 0.535195 0.536231 0.53724 0.538173 0.538982 0.539611 0.540006 0.540108 0.539855 0.539183 0.538025 0.53631 0.534545 0.533289 0.532546 0.532317 0.532598 0.533383 0.53466 0.536415 0.538629 0.541281 0.544342 0.547784 0.551573 0.555669 0.560033 0.564618 0.569375 0.57425 0.579187 0.584124 0.588997 0.593737 0.598271 0.602524 0.606415 0.60986 0.612771 0.615056 0.616619 0.617362 0.617181 0.615969 0.614432 0.613291 0.61246 0.61186 0.611415 0.611053 0.610707 0.610317 0.609825 0.609178 0.608328 0.607233 0.605854 0.604156 0.60211 0.599693 0.596883 0.593667 0.590032 0.585972 0.581488 0.576581 0.571261 0.565538 0.559432 0.552963 0.546158 0.539049 0.531671 0.524065 0.516276 0.508354 0.500559 0.493116 0.486019 0.479263 0.47284 0.46674 0.460954 0.455467 0.450266 0.445335 0.440656 0.436209 0.431974 0.427928 0.424045 0.420301 0.416666 0.413113 0.409609 0.406121 0.402616 0.399056 0.395404 0.391621 0.387664 0.383491 0.379058 0.374317 0.369222 0.363721 0.357765
0.731365 0.737388 0.743448 0.749416 0.755169 0.760596 0.765599 0.770088 0.773983 0.777217 0.779732 0.781482 0.782429 0.782549 0.781825 0.780254 0.777841 0.774603 0.770568 0.765772 0.760264 0.754104 0.747361 0.740115 0.732456 0.724487 0.716319 0.708074 0.699887 0.6919 0.684267 0.677155 0.670738 0.664456 0.657732 0.650719 0.643559 0.636383 0.62931 0.622452 0.615906 0.609762 0.604098 0.59898 0.594466 0.590602 0.587423 0.584954 0.583209 0.582193 0.581898 0.582306 0.58339 0.58511 0.587418 0.590253 0.593544 0.597211 0.601161 0.605293 0.609492 0.613636 0.617589 0.621208 0.624336 0.626716 0.62826 0.629055 0.629186 0.628735 0.627781 0.6264 0.624664 0.622643 0.620404 0.618011 0.615524 0.613001 0.610496 0.608062 0.605747 0.603597 0.601653 0.599957 0.598545 0.597449 0.596701 0.596329 0.596356 0.596805 0.597694 0.599038 0.60085 0.603139 0.605912 0.609173 0.612922 0.617306 0.622328 0.627777 0.633456 0.639185 0.644798 0.650145 0.655092 0.659518 0.663319 0.666406 0.668705 0.670156 0.670718 0.67036 0.66907 0.66685 0.663717 0.659704 0.654859 0.649245 0.64294 0.636037 0.628646 0.62089 0.612908 0.604854 0.596899 0.589228 0.582039 0.575549 0.569989 0.565149 0.560672 0.556572 0.552859 0.549541 0.546622 0.544102 0.541979 0.540248 0.538899 0.53792 0.537296 0.537007 0.537031 0.537343 0.537915 0.538713 0.539704 0.540847 0.542103 0.543424 0.544763 0.546069 0.547286 0.548355 0.549216 0.549803 0.550049 0.549882 0.549227 0.548006 0.546139 0.544165 0.542688 0.541712 0.54124 0.541267 0.541788 0.542793 0.544268 0.546194 0.54855 0.551311 0.554447 0.557925 0.561708 0.565754 0.57002 0.574456 0.579011 0.583627 0.588245 0.592801 0.597227 0.601452 0.6054 0.608992 0.612144 0.61477 0.616779 0.618077 0.618564 0.618139 0.616696 0.614928 0.613548 0.612474 0.611629 0.610939 0.610337 0.609759 0.609146 0.608442 0.607597 0.606565 0.605304 0.603778 0.601953 0.599801 0.597297 0.594424 0.591165 0.58751 0.583452 0.578991 0.574128 0.568871 0.563231 0.557225 0.550872 0.544197 0.537231 0.530006 0.522561 0.514938 0.507184 0.499571 0.492333 0.485465 0.478957 0.472799 0.46698 0.461487 0.456305 0.451418 0.446807 0.442452 0.438332 0.434424 0.430703 0.427144 0.423717 0.420393 0.417141 0.413929 0.41072 0.40748 0.404171 0.400752 0.397184 0.393422 0.389422 0.38514 0.380526 0.375532 0.370106 0.364196
0.728158 0.734233 0.740366 0.746424 0.752291 0.757855 0.763018 0.767692 0.771797 0.775265 0.77804 0.780072 0.781325 0.781771 0.781395 0.780189 0.778157 0.775313 0.771682 0.767298 0.762207 0.756463 0.750132 0.74329 0.736023 0.728427 0.720609 0.712686 0.704785 0.697044 0.68961 0.682641 0.676307 0.670015 0.663173 0.655949 0.648498 0.640965 0.633483 0.626173 0.619146 0.612501 0.606327 0.6007 0.595686 0.59134 0.587703 0.584808 0.582675 0.581314 0.580722 0.580887 0.581783 0.583375 0.585615 0.588446 0.591797 0.595588 0.599726 0.604109 0.608621 0.613137 0.617519 0.621619 0.625277 0.628204 0.630281 0.631592 0.632219 0.632241 0.631736 0.630776 0.629434 0.627777 0.625874 0.623786 0.621576 0.619301 0.617017 0.614778 0.612633 0.610632 0.60882 0.607239 0.605929 0.604929 0.604272 0.603992 0.604119 0.604679 0.605697 0.607195 0.609192 0.611705 0.614749 0.618335 0.622472 0.627305 0.632818 0.638785 0.644996 0.651259 0.657397 0.663249 0.66867 0.673533 0.677726 0.681153 0.683735 0.685408 0.686126 0.685857 0.684587 0.682318 0.679067 0.674869 0.669775 0.66385 0.657178 0.649857 0.642003 0.633748 0.625238 0.616639 0.60813 0.599907 0.592184 0.585189 0.579167 0.573912 0.569059 0.564624 0.56062 0.557055 0.553934 0.55126 0.549029 0.547235 0.545869 0.544916 0.54436 0.544179 0.544349 0.544841 0.545623 0.546658 0.547907 0.549327 0.550869 0.552484 0.554117 0.555708 0.557196 0.558515 0.559596 0.560364 0.560743 0.560652 0.560006 0.558718 0.556694 0.554507 0.552799 0.551576 0.55084 0.55059 0.55082 0.551522 0.552681 0.554282 0.556304 0.558723 0.561509 0.564632 0.568054 0.571738 0.575638 0.579707 0.583895 0.588145 0.592401 0.596598 0.60067 0.604547 0.608154 0.611415 0.614246 0.616562 0.618275 0.61929 0.61951 0.618835 0.61716 0.615166 0.613555 0.612248 0.61117 0.610252 0.609429 0.608637 0.607822 0.606928 0.605909 0.604719 0.603317 0.601669 0.599741 0.597507 0.594943 0.592029 0.588751 0.585099 0.581064 0.576646 0.571847 0.566671 0.56113 0.555239 0.549016 0.542484 0.53567 0.528607 0.521329 0.513876 0.506294 0.498862 0.491826 0.485176 0.478902 0.472992 0.467433 0.46221 0.457305 0.452702 0.448378 0.444314 0.440486 0.436869 0.433437 0.430162 0.427014 0.423963 0.420975 0.418016 0.415051 0.412041 0.408948 0.40573 0.402346 0.398751 0.394899 0.390745 0.386238 0.381328 0.375964 0.370092
0.724515 0.730657 0.736878 0.743049 0.749052 0.754777 0.760127 0.765013 0.769356 0.773087 0.776149 0.778492 0.780078 0.780878 0.780875 0.780058 0.77843 0.776003 0.772797 0.768843 0.764184 0.758871 0.752965 0.746537 0.73967 0.732454 0.72499 0.717391 0.709777 0.702281 0.695042 0.688214 0.681956 0.675653 0.668702 0.661282 0.653563 0.645701 0.637842 0.630117 0.622648 0.615545 0.608905 0.602813 0.597342 0.592556 0.588503 0.585222 0.582739 0.581068 0.580211 0.58016 0.580892 0.582375 0.584564 0.587401 0.590819 0.594736 0.599059 0.603685 0.608497 0.613367 0.618155 0.62271 0.626867 0.630309 0.632888 0.634687 0.635783 0.636254 0.636174 0.635616 0.63465 0.633344 0.631763 0.62997 0.628029 0.625996 0.623929 0.621883 0.61991 0.61806 0.616382 0.61492 0.613719 0.61282 0.612261 0.61208 0.612312 0.612988 0.614139 0.615793 0.617976 0.620711 0.62402 0.627921 0.632432 0.637696 0.643678 0.65014 0.656859 0.663631 0.670268 0.676601 0.682475 0.687755 0.692322 0.696075 0.698928 0.700815 0.701685 0.701505 0.70026 0.69795 0.694594 0.690227 0.684903 0.678692 0.671679 0.663971 0.655687 0.646967 0.637966 0.628857 0.61983 0.611092 0.602869 0.5954 0.588945 0.583301 0.578097 0.573351 0.569078 0.565287 0.561985 0.559173 0.556848 0.555004 0.553631 0.552712 0.55223 0.55216 0.552475 0.553145 0.554132 0.555397 0.556896 0.558581 0.560399 0.562294 0.564205 0.566068 0.567812 0.569365 0.57065 0.571586 0.572085 0.57206 0.571415 0.570052 0.56787 0.565467 0.563521 0.562038 0.561022 0.560474 0.560388 0.560758 0.561573 0.562815 0.564467 0.566506 0.568904 0.57163 0.574652 0.57793 0.581422 0.585082 0.588862 0.592706 0.596559 0.600358 0.60404 0.607535 0.610771 0.613671 0.616155 0.61814 0.619538 0.620256 0.6202 0.619271 0.617365 0.615151 0.613319 0.611791 0.610498 0.60937 0.608345 0.607364 0.60637 0.605314 0.604147 0.602826 0.601312 0.599571 0.597569 0.595282 0.592684 0.589758 0.586488 0.582864 0.578877 0.574526 0.569811 0.564738 0.559314 0.553555 0.547476 0.541099 0.534449 0.527555 0.520452 0.513175 0.505766 0.498514 0.491671 0.485227 0.47917 0.473486 0.468161 0.463177 0.458517 0.454161 0.450087 0.446273 0.442694 0.439324 0.436136 0.4331 0.430186 0.427361 0.424592 0.421842 0.419075 0.416253 0.413336 0.41028 0.407044 0.403583 0.399849 0.395796 0.391372 0.386529 0.381211 0.375367
0.720469 0.726694 0.733022 0.739326 0.745487 0.751397 0.756958 0.762081 0.766687 0.770706 0.77408 0.776758 0.778701 0.779878 0.780268 0.779861 0.778655 0.776659 0.773892 0.770381 0.766165 0.761291 0.755817 0.749808 0.743343 0.736508 0.729399 0.722122 0.714792 0.707536 0.700488 0.693794 0.687608 0.681294 0.674242 0.666645 0.658684 0.650526 0.642328 0.634231 0.626367 0.618854 0.611797 0.605291 0.599415 0.594239 0.589819 0.586199 0.583409 0.581469 0.580384 0.58015 0.580747 0.582146 0.584301 0.587159 0.59065 0.594695 0.5992 0.604061 0.609158 0.614362 0.619531 0.62451 0.62913 0.633049 0.636095 0.638346 0.639879 0.640768 0.641085 0.640902 0.640288 0.639309 0.638031 0.636518 0.63483 0.633027 0.631168 0.629307 0.6275 0.625797 0.624251 0.622908 0.621816 0.621019 0.62056 0.62048 0.620818 0.621612 0.622896 0.624705 0.62707 0.630021 0.633585 0.637789 0.642657 0.64833 0.654757 0.661687 0.668886 0.676139 0.683249 0.690036 0.696339 0.702014 0.706937 0.711001 0.714115 0.716209 0.71723 0.717142 0.715929 0.713591 0.710146 0.705633 0.700105 0.693637 0.686318 0.678258 0.669583 0.660439 0.650989 0.641414 0.631913 0.622703 0.614019 0.606114 0.599259 0.593255 0.587729 0.582699 0.578181 0.574187 0.570723 0.56779 0.565386 0.563504 0.562131 0.561252 0.560846 0.560887 0.561345 0.562186 0.56337 0.564855 0.566591 0.568526 0.570603 0.57276 0.574931 0.577045 0.579026 0.580794 0.582266 0.583351 0.583956 0.583983 0.583329 0.581887 0.579546 0.576926 0.574736 0.572983 0.571674 0.57081 0.570389 0.570404 0.570846 0.571702 0.572953 0.574578 0.576554 0.57885 0.581434 0.584269 0.587317 0.590531 0.593866 0.597268 0.600684 0.604053 0.607312 0.610395 0.613231 0.615746 0.617862 0.619497 0.620564 0.620975 0.620636 0.619449 0.617315 0.614889 0.612846 0.611113 0.609622 0.608306 0.607105 0.60596 0.604817 0.603627 0.602344 0.600924 0.599331 0.597528 0.595486 0.593177 0.590579 0.587671 0.584439 0.580872 0.576961 0.572702 0.568096 0.563147 0.557861 0.552252 0.546333 0.540125 0.53365 0.526936 0.520013 0.512915 0.505681 0.498606 0.491946 0.485693 0.479831 0.474347 0.469224 0.464445 0.45999 0.45584 0.45197 0.448359 0.444979 0.441805 0.438809 0.435959 0.433224 0.430572 0.427968 0.425376 0.422757 0.420074 0.417284 0.414347 0.411217 0.407851 0.4042 0.400216 0.39585 0.39105 0.385763 0.379935
0.716063 0.722386 0.728839 0.735295 0.741636 0.747753 0.753547 0.75893 0.763821 0.768151 0.771858 0.774891 0.777209 0.778779 0.779578 0.779594 0.778822 0.777268 0.774948 0.771886 0.768117 0.763685 0.758642 0.753051 0.746986 0.740527 0.733767 0.726805 0.719753 0.712729 0.705864 0.699297 0.693175 0.686849 0.679709 0.671956 0.663783 0.655368 0.646874 0.638454 0.630247 0.622379 0.614964 0.608102 0.601879 0.596372 0.59164 0.587734 0.584687 0.582525 0.581255 0.580876 0.581372 0.582712 0.584857 0.58775 0.591325 0.595501 0.600185 0.60527 0.610636 0.616153 0.621674 0.627041 0.632085 0.636438 0.639909 0.642572 0.644502 0.645771 0.646449 0.646608 0.646314 0.645634 0.644633 0.643373 0.641918 0.640326 0.638657 0.636968 0.635314 0.633749 0.632326 0.631096 0.630108 0.629409 0.629047 0.629066 0.629508 0.630417 0.631831 0.633789 0.636329 0.639486 0.643293 0.647784 0.652988 0.659045 0.665889 0.673257 0.680905 0.688608 0.696161 0.703374 0.71008 0.716129 0.72139 0.72575 0.729116 0.731413 0.732585 0.732595 0.731425 0.729075 0.725564 0.720931 0.715231 0.708542 0.700956 0.692588 0.68357 0.674051 0.664202 0.654211 0.644286 0.634651 0.625553 0.617254 0.610037 0.603707 0.597889 0.592604 0.587868 0.583694 0.580088 0.577052 0.574583 0.572672 0.571308 0.570472 0.570142 0.57029 0.570884 0.571887 0.573255 0.574943 0.576899 0.579065 0.581379 0.583776 0.586183 0.588524 0.590717 0.592677 0.594313 0.595527 0.59622 0.596286 0.595613 0.594086 0.591586 0.588751 0.586313 0.584285 0.582672 0.581479 0.580705 0.580346 0.580394 0.580839 0.581663 0.582849 0.584373 0.586208 0.588324 0.590687 0.593258 0.595996 0.598855 0.601786 0.604735 0.607645 0.610455 0.613102 0.615516 0.617626 0.619355 0.620624 0.62135 0.621444 0.620817 0.619373 0.617014 0.614383 0.612144 0.610224 0.608556 0.607077 0.605726 0.604448 0.603188 0.601898 0.600533 0.599051 0.597414 0.595588 0.593541 0.591247 0.588683 0.585829 0.582669 0.57919 0.575385 0.571247 0.566777 0.561976 0.556851 0.551412 0.545671 0.539646 0.533358 0.526832 0.520095 0.513181 0.506123 0.499219 0.492732 0.486649 0.480958 0.475643 0.470686 0.466071 0.461777 0.457783 0.454066 0.450602 0.447366 0.444329 0.441463 0.438738 0.436122 0.433582 0.431083 0.428588 0.42606 0.423459 0.420745 0.417874 0.414804 0.411488 0.40788 0.403932 0.399593 0.394812 0.389536 0.383711
0.711343 0.717782 0.724379 0.731006 0.737546 0.74389 0.749938 0.755601 0.760796 0.765453 0.76951 0.772913 0.775619 0.777593 0.778811 0.779257 0.778924 0.777815 0.775943 0.773329 0.770004 0.766008 0.761391 0.75621 0.750535 0.744443 0.73802 0.731362 0.724575 0.717773 0.711081 0.704631 0.698565 0.692228 0.685011 0.677128 0.668777 0.660146 0.651406 0.642718 0.634228 0.626068 0.618359 0.611206 0.604703 0.598928 0.593948 0.589815 0.58657 0.584238 0.582832 0.582351 0.582781 0.584096 0.586254 0.589202 0.592871 0.597182 0.602041 0.60734 0.612958 0.618761 0.624603 0.630321 0.635742 0.640483 0.64433 0.647358 0.649639 0.651243 0.65224 0.652699 0.652687 0.652269 0.651511 0.650474 0.649222 0.647816 0.646314 0.644775 0.643255 0.641812 0.640498 0.639368 0.638473 0.637864 0.63759 0.6377 0.63824 0.639255 0.640791 0.64289 0.645594 0.648944 0.652978 0.657736 0.663253 0.669665 0.676894 0.684667 0.692731 0.700851 0.708814 0.716424 0.723507 0.729907 0.735487 0.74013 0.743739 0.746236 0.747562 0.74768 0.746568 0.744227 0.740677 0.735955 0.730122 0.723254 0.71545 0.706824 0.697515 0.687678 0.677488 0.667139 0.656846 0.646843 0.637382 0.628737 0.621199 0.61458 0.608505 0.602996 0.59807 0.593741 0.590014 0.586891 0.584369 0.58244 0.581088 0.580296 0.580039 0.580287 0.581006 0.582156 0.583692 0.585564 0.587716 0.590087 0.592612 0.59522 0.597834 0.600373 0.602751 0.604875 0.606648 0.607969 0.608729 0.608817 0.608114 0.606497 0.603839 0.600791 0.598107 0.595798 0.593875 0.592343 0.591205 0.590457 0.590096 0.590111 0.590489 0.591214 0.592264 0.593615 0.59524 0.597105 0.599176 0.601413 0.603772 0.606207 0.608667 0.611096 0.613437 0.615628 0.617603 0.619292 0.620621 0.621514 0.62189 0.621664 0.620746 0.619046 0.616467 0.613642 0.611221 0.609133 0.607313 0.605698 0.604229 0.60285 0.601509 0.600157 0.59875 0.597245 0.595605 0.593795 0.591784 0.589546 0.587055 0.584292 0.58124 0.577886 0.57422 0.570235 0.56593 0.561305 0.556364 0.551116 0.545571 0.539745 0.533657 0.527329 0.520785 0.514056 0.507174 0.500436 0.494107 0.488174 0.482624 0.477442 0.472612 0.468114 0.463929 0.460037 0.456414 0.453036 0.449877 0.446911 0.444109 0.441441 0.438875 0.436378 0.433915 0.431451 0.428948 0.426367 0.423667 0.420807 0.417742 0.414429 0.41082 0.406867 0.402521 0.397732 0.392446 0.38661
0.706365 0.712937 0.719696 0.726514 0.733272 0.739861 0.74618 0.752138 0.757652 0.76265 0.767067 0.770849 0.77395 0.776334 0.777973 0.778849 0.778953 0.778285 0.776854 0.774679 0.771788 0.768216 0.76401 0.759224 0.753923 0.748181 0.742078 0.735708 0.72917 0.722575 0.716041 0.709696 0.703679 0.697331 0.690052 0.682065 0.673574 0.664774 0.655844 0.646949 0.638241 0.62986 0.621928 0.614558 0.607846 0.601876 0.596717 0.592426 0.589045 0.586602 0.585113 0.584579 0.584986 0.58631 0.58851 0.591532 0.595309 0.59976 0.604791 0.610293 0.616143 0.622206 0.628333 0.634359 0.640109 0.645182 0.649353 0.652692 0.655271 0.657159 0.658425 0.659136 0.659359 0.659159 0.658601 0.657749 0.656664 0.655408 0.654042 0.652625 0.651215 0.649869 0.648645 0.647596 0.646778 0.646243 0.646044 0.646232 0.646857 0.647967 0.649612 0.651839 0.654692 0.658218 0.66246 0.667461 0.673263 0.68 0.68758 0.695722 0.704164 0.712665 0.721005 0.728981 0.736413 0.74314 0.74902 0.753934 0.757779 0.760476 0.761963 0.762199 0.761165 0.75886 0.755302 0.750532 0.744609 0.737612 0.729642 0.720818 0.71128 0.701188 0.690721 0.68008 0.669484 0.659173 0.649409 0.64047 0.632658 0.62579 0.619495 0.613796 0.60871 0.60425 0.600423 0.59723 0.594668 0.592726 0.59139 0.590639 0.590448 0.590786 0.591616 0.592895 0.594575 0.596605 0.598925 0.601472 0.604175 0.606961 0.609748 0.612451 0.614978 0.617234 0.619116 0.620515 0.62132 0.621411 0.620666 0.618953 0.616139 0.612884 0.609954 0.607366 0.60513 0.603255 0.601744 0.6006 0.599818 0.599392 0.59931 0.599559 0.60012 0.600972 0.602088 0.603439 0.604992 0.606711 0.608553 0.610476 0.61243 0.614364 0.616222 0.617944 0.619468 0.620726 0.621648 0.622159 0.62218 0.621631 0.620425 0.618472 0.61568 0.612672 0.610085 0.607852 0.605907 0.604187 0.602633 0.601191 0.599808 0.598435 0.597028 0.595544 0.593945 0.592197 0.590267 0.588127 0.585753 0.583123 0.58022 0.577029 0.573538 0.569741 0.565632 0.561211 0.556481 0.551447 0.546118 0.540508 0.534633 0.528512 0.522168 0.515627 0.50892 0.50234 0.496152 0.490344 0.484904 0.479816 0.475065 0.470632 0.4665 0.462648 0.459052 0.455692 0.45254 0.449571 0.446758 0.44407 0.441477 0.438946 0.436445 0.433938 0.431388 0.428756 0.426004 0.423091 0.419973 0.416607 0.412948 0.408948 0.404558 0.39973 0.394411 0.388549
0.70119 0.707913 0.714852 0.721879 0.728872 0.735722 0.742326 0.748591 0.754435 0.759781 0.764565 0.768729 0.772226 0.775016 0.777071 0.77837 0.778901 0.778661 0.777657 0.775904 0.773427 0.770258 0.766442 0.762028 0.757078 0.751662 0.745856 0.739751 0.733441 0.727032 0.72064 0.714388 0.708408 0.70205 0.694726 0.686664 0.678076 0.669159 0.660099 0.651064 0.642212 0.633685 0.62561 0.618103 0.611263 0.605177 0.599917 0.595542 0.592095 0.589607 0.588094 0.587559 0.58799 0.589362 0.591634 0.594754 0.598653 0.60325 0.60845 0.614142 0.620204 0.626497 0.632871 0.639159 0.645183 0.65053 0.654964 0.658555 0.661373 0.663486 0.664962 0.665869 0.666273 0.66624 0.665833 0.665117 0.664155 0.663009 0.66174 0.660408 0.659074 0.657796 0.656633 0.655641 0.654876 0.654394 0.654251 0.654498 0.655191 0.65638 0.658117 0.660453 0.663437 0.667118 0.671544 0.676763 0.68282 0.689846 0.69774 0.706211 0.714993 0.723837 0.732517 0.740826 0.748579 0.755609 0.761772 0.766944 0.771021 0.773919 0.775576 0.775949 0.775016 0.772777 0.76925 0.764475 0.758513 0.751445 0.743371 0.734414 0.724716 0.71444 0.703769 0.692908 0.682081 0.671532 0.661528 0.652354 0.644318 0.637246 0.630771 0.624917 0.619702 0.615138 0.611231 0.607984 0.605391 0.603442 0.602121 0.601407 0.601273 0.601685 0.602605 0.603989 0.605787 0.607944 0.610399 0.613084 0.615927 0.618851 0.621771 0.624598 0.627237 0.629587 0.631543 0.63299 0.633814 0.633888 0.633086 0.631272 0.628305 0.62485 0.621681 0.618816 0.616268 0.614049 0.612166 0.610621 0.609414 0.608541 0.607994 0.60776 0.607824 0.608167 0.608766 0.609594 0.610621 0.611812 0.613129 0.614531 0.615971 0.617402 0.61877 0.620018 0.621085 0.621909 0.62242 0.622547 0.622216 0.621345 0.619854 0.617655 0.614658 0.611479 0.608746 0.606392 0.604351 0.602559 0.600959 0.599494 0.598112 0.596763 0.595403 0.593988 0.592479 0.59084 0.589039 0.587046 0.584836 0.582385 0.579674 0.576687 0.573412 0.569838 0.56596 0.561775 0.557283 0.552488 0.547397 0.54202 0.536372 0.530468 0.524329 0.51798 0.511446 0.505015 0.498949 0.493239 0.487871 0.482833 0.47811 0.473686 0.469544 0.465663 0.462024 0.458604 0.45538 0.452327 0.449419 0.446627 0.443923 0.441276 0.438653 0.43602 0.433343 0.430586 0.427708 0.424672 0.421437 0.417959 0.414195 0.4101 0.405626 0.400726 0.395349 0.389445
0.695887 0.702781 0.709918 0.717169 0.724412 0.731536 0.738435 0.745017 0.751195 0.756892 0.762042 0.766584 0.770469 0.773657 0.776116 0.777821 0.77876 0.778927 0.778325 0.776968 0.774878 0.772084 0.768626 0.764554 0.759923 0.754801 0.749263 0.743394 0.737285 0.73104 0.724769 0.718592 0.712639 0.706272 0.698922 0.690818 0.682178 0.673202 0.664077 0.654976 0.646059 0.63747 0.629339 0.621782 0.614902 0.608787 0.60351 0.599131 0.595695 0.593233 0.591762 0.591285 0.59179 0.593253 0.595632 0.598875 0.602912 0.607661 0.613027 0.618898 0.625148 0.63164 0.63822 0.644719 0.650957 0.656514 0.661146 0.664922 0.667911 0.670183 0.671805 0.672844 0.673366 0.673438 0.673125 0.67249 0.671598 0.670511 0.669292 0.668003 0.666704 0.665456 0.664319 0.663351 0.66261 0.662154 0.66204 0.662324 0.663061 0.664306 0.666114 0.668537 0.671629 0.675441 0.680024 0.68543 0.691708 0.698986 0.707151 0.71591 0.72499 0.734137 0.74312 0.751728 0.759772 0.767083 0.773512 0.778932 0.783237 0.786341 0.78818 0.788709 0.787907 0.78577 0.782318 0.77759 0.771647 0.76457 0.756462 0.747446 0.737665 0.727285 0.716491 0.705491 0.694511 0.6838 0.673626 0.664282 0.656076 0.648848 0.642236 0.636265 0.630952 0.62631 0.622345 0.619058 0.616443 0.61449 0.613182 0.612496 0.612403 0.61287 0.613857 0.615317 0.6172 0.619447 0.621996 0.624777 0.627716 0.630732 0.633739 0.636645 0.639351 0.641754 0.643743 0.645205 0.646017 0.646052 0.645178 0.643256 0.640142 0.636496 0.633096 0.62996 0.627107 0.62455 0.622297 0.620355 0.618726 0.617409 0.616396 0.615681 0.615249 0.615084 0.615165 0.61547 0.61597 0.616633 0.617424 0.618305 0.619232 0.62016 0.621038 0.621813 0.622427 0.622818 0.622922 0.622671 0.62199 0.620806 0.619037 0.6166 0.613408 0.610071 0.607213 0.604765 0.602659 0.600833 0.599226 0.597783 0.596448 0.595173 0.593911 0.592616 0.59125 0.589774 0.588154 0.58636 0.584363 0.58214 0.579669 0.576932 0.573914 0.570604 0.566994 0.563078 0.558854 0.554325 0.549493 0.544368 0.538961 0.533285 0.527358 0.5212 0.514837 0.508545 0.502581 0.496937 0.491602 0.486566 0.481815 0.477337 0.473114 0.469131 0.465368 0.461806 0.458424 0.455198 0.452105 0.449118 0.446211 0.443355 0.440519 0.437673 0.434783 0.431814 0.428732 0.425498 0.422074 0.418419 0.414493 0.41025 0.405648 0.40064 0.395178 0.389214
0.690532 0.697615 0.704968 0.712459 0.719965 0.727372 0.734574 0.741475 0.747987 0.754032 0.75954 0.764449 0.768709 0.772276 0.775116 0.777203 0.778522 0.779065 0.778833 0.777836 0.776095 0.773637 0.770499 0.766727 0.762376 0.757511 0.752202 0.746533 0.740593 0.734483 0.728309 0.722191 0.716252 0.709877 0.702519 0.694411 0.685768 0.676794 0.667676 0.65859 0.649693 0.641132 0.633038 0.625528 0.618703 0.612653 0.60745 0.603155 0.599813 0.597454 0.596096 0.595741 0.596376 0.597976 0.6005 0.603893 0.608087 0.612996 0.618525 0.624561 0.630977 0.637633 0.644373 0.65103 0.657419 0.663116 0.667873 0.671761 0.674848 0.677205 0.678899 0.679997 0.680567 0.680676 0.680388 0.679771 0.678887 0.677801 0.676578 0.675278 0.673966 0.672702 0.671548 0.670564 0.66981 0.669346 0.66923 0.669519 0.670273 0.671547 0.673398 0.675882 0.679053 0.682967 0.687677 0.693237 0.699699 0.707187 0.715581 0.724583 0.733916 0.743323 0.752571 0.761444 0.76975 0.777317 0.783996 0.789655 0.794187 0.797505 0.799542 0.800253 0.799614 0.797622 0.794294 0.789671 0.783812 0.776799 0.768733 0.759739 0.749961 0.739565 0.728737 0.717686 0.70664 0.695848 0.685583 0.676137 0.667822 0.660488 0.653785 0.647736 0.642359 0.637666 0.633663 0.63035 0.62772 0.625764 0.624461 0.62379 0.623721 0.624219 0.625243 0.626745 0.628672 0.630967 0.633564 0.636392 0.639376 0.642433 0.645474 0.648406 0.651129 0.653537 0.655518 0.656954 0.657722 0.657693 0.656731 0.654695 0.651438 0.647613 0.643992 0.640598 0.63745 0.634565 0.631953 0.629625 0.627584 0.625831 0.624363 0.623175 0.622256 0.621593 0.621166 0.620957 0.620938 0.621083 0.621357 0.621726 0.62215 0.622584 0.622982 0.623293 0.623463 0.623432 0.623139 0.622518 0.6215 0.620011 0.617975 0.615311 0.611935 0.608457 0.605496 0.602982 0.600847 0.599026 0.597457 0.596082 0.594847 0.593698 0.592588 0.59147 0.590303 0.589046 0.587664 0.586124 0.584396 0.582453 0.580272 0.577833 0.575119 0.572115 0.568812 0.5652 0.561277 0.557041 0.552493 0.54764 0.542488 0.53705 0.531341 0.525378 0.519181 0.513017 0.507132 0.501519 0.496174 0.491086 0.486247 0.481645 0.477267 0.4731 0.469128 0.465335 0.4617 0.458205 0.454829 0.451548 0.448337 0.445173 0.442027 0.43887 0.435673 0.432404 0.429029 0.425516 0.421827 0.417925 0.413772 0.409327 0.404549 0.399394 0.393818 0.387774
0.685206 0.692498 0.700084 0.70783 0.715609 0.723306 0.730812 0.738031 0.744872 0.751253 0.757105 0.762363 0.766974 0.770893 0.774083 0.776518 0.778179 0.779056 0.77915 0.778469 0.777029 0.774858 0.77199 0.76847 0.764351 0.759694 0.75457 0.74906 0.743251 0.737241 0.731138 0.725055 0.719118 0.712736 0.705393 0.697318 0.688727 0.679821 0.670788 0.661801 0.653019 0.644584 0.636628 0.629267 0.6226 0.616716 0.611687 0.607571 0.604412 0.602241 0.601072 0.600907 0.601732 0.60352 0.60623 0.609804 0.614173 0.619251 0.62494 0.631127 0.637683 0.644466 0.651321 0.658076 0.664547 0.670308 0.675113 0.679033 0.682137 0.684497 0.686181 0.687258 0.687797 0.687864 0.687528 0.686854 0.685908 0.684756 0.683463 0.682093 0.68071 0.679376 0.678155 0.677108 0.676297 0.675783 0.675625 0.675884 0.67662 0.677889 0.679751 0.682264 0.685483 0.689466 0.694268 0.699944 0.70655 0.714204 0.72278 0.731978 0.741518 0.751142 0.760612 0.769714 0.778253 0.786055 0.792967 0.798859 0.803621 0.807163 0.809418 0.81034 0.809904 0.808104 0.804958 0.800504 0.794801 0.78793 0.779993 0.771112 0.76143 0.751114 0.740349 0.729343 0.718325 0.707543 0.69727 0.687796 0.679436 0.672052 0.665305 0.65922 0.653814 0.649097 0.645075 0.641747 0.639108 0.637145 0.635839 0.635167 0.635099 0.635598 0.636623 0.638126 0.640053 0.642346 0.644938 0.647757 0.650728 0.653767 0.656784 0.659685 0.662368 0.664728 0.666651 0.668019 0.668708 0.668586 0.667518 0.665361 0.661968 0.657978 0.654151 0.650513 0.647086 0.643889 0.640936 0.638238 0.635802 0.633632 0.631728 0.630087 0.6287 0.627556 0.626641 0.625937 0.62542 0.625065 0.624842 0.624718 0.624657 0.624616 0.624553 0.624418 0.624161 0.623725 0.623052 0.622078 0.620738 0.61896 0.616671 0.613794 0.610247 0.606644 0.603605 0.601057 0.59893 0.597156 0.595673 0.594418 0.593335 0.59237 0.591471 0.59059 0.589682 0.588706 0.587622 0.586396 0.584994 0.583388 0.581552 0.579463 0.5771 0.574448 0.571493 0.568225 0.564636 0.560723 0.556484 0.551923 0.547043 0.541854 0.536368 0.5306 0.524567 0.518517 0.512684 0.507067 0.501663 0.496466 0.491472 0.486673 0.48206 0.477622 0.473348 0.469224 0.465237 0.461369 0.457603 0.45392 0.4503 0.44672 0.443157 0.439586 0.435981 0.432314 0.428555 0.424673 0.420638 0.416413 0.411966 0.407258 0.402253 0.39691 0.391188 0.385045
0.679696 0.687192 0.695001 0.702988 0.711027 0.718999 0.726795 0.734315 0.741468 0.748171 0.754351 0.759943 0.764892 0.769151 0.772682 0.775455 0.777452 0.778659 0.779076 0.778709 0.777573 0.775692 0.773101 0.76984 0.765961 0.761524 0.756598 0.75126 0.745597 0.739705 0.733688 0.727659 0.721741 0.715376 0.708081 0.700083 0.691594 0.682813 0.673924 0.665099 0.656492 0.648246 0.640488 0.633332 0.626876 0.621207 0.616393 0.612493 0.609548 0.607586 0.606622 0.606654 0.607669 0.609637 0.612516 0.616249 0.620763 0.625974 0.631781 0.63807 0.644714 0.65157 0.65848 0.665275 0.671768 0.677534 0.682325 0.686213 0.689272 0.691572 0.693183 0.694178 0.694625 0.694593 0.694151 0.693367 0.692308 0.691042 0.689634 0.68815 0.686656 0.685216 0.683893 0.682752 0.681854 0.681263 0.681039 0.681245 0.681939 0.683183 0.685036 0.687555 0.690801 0.694829 0.699697 0.705462 0.712179 0.719963 0.72868 0.738031 0.747734 0.757531 0.767184 0.776476 0.785212 0.793217 0.800339 0.806444 0.811423 0.815184 0.81766 0.818803 0.818585 0.817002 0.814069 0.809824 0.804324 0.797647 0.789895 0.781189 0.771671 0.761504 0.750874 0.739986 0.729067 0.718365 0.708149 0.69871 0.690358 0.682973 0.676233 0.670158 0.664765 0.660065 0.656061 0.652752 0.650131 0.648185 0.646893 0.646232 0.646171 0.646673 0.647695 0.64919 0.651103 0.653374 0.655937 0.658721 0.661648 0.664635 0.667591 0.670424 0.67303 0.675304 0.677133 0.678399 0.678976 0.678736 0.677541 0.675251 0.671717 0.667564 0.663541 0.659675 0.65599 0.652506 0.649241 0.646207 0.643413 0.640867 0.638568 0.636517 0.634708 0.633131 0.631775 0.630623 0.629656 0.628848 0.628174 0.627603 0.627099 0.626625 0.626139 0.625595 0.624943 0.624132 0.623104 0.621799 0.620153 0.618099 0.615565 0.612477 0.608755 0.605021 0.601898 0.599311 0.597186 0.595455 0.594051 0.592912 0.591977 0.59119 0.590497 0.589847 0.589194 0.588492 0.5877 0.586781 0.5857 0.584424 0.582926 0.581179 0.579161 0.576853 0.574239 0.571305 0.568042 0.564442 0.560503 0.556224 0.551607 0.546658 0.541386 0.535802 0.529922 0.523975 0.51818 0.51254 0.507056 0.501729 0.496557 0.491536 0.486661 0.481928 0.477328 0.472851 0.468488 0.464226 0.460052 0.45595 0.451903 0.447894 0.443903 0.439908 0.435888 0.431817 0.427671 0.423422 0.419041 0.414498 0.409762 0.4048 0.399576 0.394054 0.388198 0.381967
0.673849 0.681513 0.689509 0.697702 0.705963 0.714175 0.722228 0.730021 0.737462 0.744467 0.750961 0.75688 0.762165 0.766769 0.770652 0.773783 0.77614 0.777711 0.77849 0.778482 0.7777 0.776166 0.77391 0.770973 0.767402 0.763254 0.758595 0.7535 0.748051 0.742342 0.736472 0.730551 0.724698 0.718394 0.711192 0.703314 0.69497 0.686353 0.677645 0.669012 0.660607 0.652569 0.645022 0.638076 0.63183 0.626364 0.621748 0.618037 0.615272 0.613478 0.612669 0.612843 0.613985 0.616066 0.619043 0.622858 0.627439 0.632703 0.638549 0.644863 0.65152 0.658377 0.665279 0.672058 0.678529 0.68426 0.688998 0.692818 0.695793 0.697998 0.699504 0.700383 0.700708 0.700549 0.699976 0.699058 0.697866 0.696466 0.694927 0.693316 0.691699 0.690142 0.68871 0.687468 0.686479 0.685807 0.685515 0.685663 0.686315 0.68753 0.689369 0.691891 0.695155 0.699219 0.704141 0.709977 0.716785 0.724672 0.733499 0.742967 0.752794 0.762723 0.772515 0.781956 0.790848 0.799019 0.806313 0.812599 0.817765 0.82172 0.824396 0.825743 0.825734 0.824363 0.821644 0.817613 0.812326 0.805861 0.798316 0.78981 0.780486 0.770502 0.760044 0.749313 0.738535 0.727955 0.717839 0.708475 0.700172 0.692827 0.686137 0.680121 0.674792 0.670159 0.666225 0.662985 0.660431 0.658548 0.657315 0.656706 0.656689 0.657226 0.658274 0.659784 0.661701 0.663964 0.666508 0.66926 0.672142 0.675072 0.677959 0.68071 0.683223 0.685393 0.687107 0.688248 0.688692 0.688311 0.686969 0.684526 0.680836 0.676514 0.672298 0.668216 0.664294 0.660554 0.657013 0.653686 0.650584 0.647713 0.645078 0.642678 0.64051 0.638566 0.636834 0.635301 0.633949 0.632755 0.631693 0.630735 0.629848 0.628995 0.628136 0.627229 0.626224 0.625072 0.623718 0.622103 0.620167 0.617843 0.615062 0.611751 0.607835 0.603942 0.600699 0.59803 0.595861 0.59412 0.59274 0.591656 0.590806 0.590131 0.589576 0.589088 0.588619 0.588121 0.587551 0.586869 0.586039 0.585025 0.583798 0.582329 0.580593 0.57857 0.576239 0.573587 0.5706 0.567269 0.563587 0.559552 0.555164 0.550425 0.545342 0.539924 0.534182 0.528328 0.522567 0.516907 0.511353 0.505911 0.500582 0.495368 0.490268 0.48528 0.480401 0.475626 0.470946 0.466355 0.461842 0.457394 0.453 0.448644 0.44431 0.439979 0.435632 0.431248 0.426804 0.422275 0.417636 0.412859 0.407915 0.402772 0.397399 0.391762 0.385824 0.379549
0.667824 0.675625 0.683773 0.692134 0.700582 0.708999 0.717275 0.725309 0.733009 0.740292 0.747083 0.753314 0.758928 0.763875 0.768115 0.771615 0.77435 0.776307 0.777478 0.777865 0.777479 0.776338 0.77447 0.77191 0.768705 0.764906 0.760576 0.755784 0.750611 0.745142 0.739474 0.733711 0.727967 0.721764 0.714697 0.706981 0.698821 0.690406 0.681911 0.6735 0.66532 0.657507 0.650181 0.64345 0.637409 0.632137 0.627701 0.624153 0.621534 0.619867 0.619167 0.61943 0.62064 0.62277 0.625776 0.629602 0.634177 0.639418 0.645228 0.651494 0.658093 0.664886 0.67172 0.678431 0.684838 0.690498 0.695149 0.698867 0.701727 0.703805 0.705177 0.705916 0.706095 0.705787 0.705063 0.703996 0.702655 0.701111 0.699431 0.697685 0.69594 0.694263 0.69272 0.691376 0.690297 0.689545 0.689186 0.68928 0.68989 0.691077 0.692902 0.695424 0.698702 0.702795 0.707759 0.713652 0.720531 0.728495 0.737401 0.746949 0.756862 0.766882 0.776773 0.78632 0.795328 0.803624 0.811053 0.817485 0.822807 0.82693 0.829782 0.831316 0.831503 0.830336 0.827827 0.824013 0.818946 0.812704 0.805383 0.7971 0.787994 0.778223 0.767969 0.75743 0.74683 0.73641 0.726433 0.717183 0.708965 0.701698 0.6951 0.689186 0.683968 0.679449 0.675631 0.672506 0.670063 0.668285 0.667149 0.666628 0.666687 0.667288 0.668386 0.669931 0.671867 0.674134 0.676664 0.679385 0.68222 0.685086 0.687894 0.69055 0.692954 0.695 0.69658 0.697575 0.697864 0.697321 0.695812 0.6932 0.68934 0.684842 0.680437 0.676152 0.672015 0.668046 0.664265 0.660686 0.657321 0.654178 0.651261 0.648569 0.646102 0.643851 0.641807 0.639956 0.638281 0.636761 0.635372 0.634085 0.632869 0.631689 0.630506 0.629278 0.627959 0.6265 0.624847 0.622943 0.620729 0.618141 0.615112 0.61157 0.607441 0.603362 0.599967 0.597179 0.594921 0.593123 0.591715 0.590631 0.589808 0.589185 0.588707 0.588318 0.587969 0.58761 0.587198 0.586689 0.586046 0.585233 0.584216 0.582967 0.581457 0.579664 0.577566 0.575146 0.572389 0.569284 0.565822 0.561997 0.557807 0.553251 0.548334 0.543062 0.537445 0.531674 0.525943 0.520265 0.51465 0.509107 0.503643 0.498263 0.492971 0.487769 0.482657 0.477633 0.472694 0.467835 0.46305 0.458328 0.453661 0.449036 0.444439 0.439855 0.435266 0.430654 0.425997 0.421274 0.416459 0.411527 0.406451 0.4012 0.395743 0.390047 0.384079 0.3778
0.661773 0.669678 0.677945 0.686438 0.695036 0.70362 0.712083 0.720325 0.728254 0.735788 0.742851 0.749377 0.755306 0.760589 0.765184 0.769056 0.77218 0.774538 0.776123 0.776932 0.776973 0.776263 0.774823 0.772688 0.769897 0.766499 0.76255 0.758116 0.753271 0.748095 0.742679 0.73712 0.731526 0.725462 0.718568 0.711053 0.703113 0.694933 0.686683 0.678519 0.670585 0.663012 0.655917 0.649404 0.643564 0.638474 0.6342 0.630791 0.628285 0.626709 0.626071 0.626372 0.627596 0.629714 0.632685 0.636454 0.640954 0.646102 0.651805 0.657954 0.66443 0.671096 0.677807 0.684402 0.690705 0.696263 0.700795 0.704381 0.707098 0.709026 0.71024 0.710818 0.710833 0.710361 0.709474 0.708246 0.706749 0.705054 0.70323 0.701348 0.699475 0.69768 0.69603 0.69459 0.693425 0.692601 0.692181 0.692227 0.692801 0.693965 0.695778 0.698301 0.701591 0.705706 0.710704 0.71664 0.72357 0.731587 0.74054 0.750134 0.760094 0.770166 0.780114 0.789726 0.798808 0.807189 0.814717 0.821259 0.826705 0.830966 0.833971 0.835671 0.836038 0.835063 0.832759 0.829159 0.824316 0.818306 0.811221 0.803177 0.794311 0.784778 0.774756 0.76444 0.754051 0.743825 0.734022 0.724921 0.716822 0.709668 0.7032 0.697429 0.692363 0.688001 0.68434 0.68137 0.679078 0.677442 0.676438 0.676036 0.6762 0.676889 0.678057 0.679653 0.681621 0.683898 0.686418 0.689109 0.691893 0.694687 0.697405 0.699951 0.702229 0.704135 0.705559 0.706388 0.706502 0.705778 0.704084 0.701287 0.697246 0.692568 0.687977 0.683503 0.67917 0.675001 0.671013 0.667221 0.663638 0.660269 0.657121 0.654192 0.651482 0.648982 0.646684 0.644574 0.642635 0.640848 0.639187 0.637625 0.636133 0.634674 0.633212 0.631705 0.630108 0.628372 0.626445 0.624273 0.621795 0.61895 0.615671 0.611888 0.607529 0.60324 0.599664 0.596721 0.594337 0.592438 0.590955 0.589821 0.588972 0.588348 0.58789 0.587543 0.587256 0.586979 0.586665 0.586273 0.585761 0.585091 0.584231 0.583147 0.581812 0.5802 0.578288 0.576057 0.573489 0.570572 0.567293 0.563646 0.559625 0.555228 0.550456 0.545313 0.539805 0.534108 0.528404 0.52271 0.517042 0.511412 0.505832 0.500312 0.49486 0.489482 0.48418 0.478957 0.473812 0.468745 0.46375 0.458822 0.453953 0.449133 0.44435 0.439591 0.434841 0.430081 0.425292 0.420453 0.41554 0.410529 0.405391 0.400099 0.39462 0.388921 0.382969 0.376725
0.65583 0.663812 0.672162 0.680753 0.689462 0.698176 0.706789 0.715204 0.723329 0.731084 0.738393 0.74519 0.751417 0.757022 0.761963 0.766204 0.769719 0.772488 0.7745 0.77575 0.776243 0.775991 0.775014 0.77334 0.771003 0.768049 0.764527 0.760497 0.756027 0.75119 0.74607 0.740757 0.735349 0.729461 0.722776 0.715496 0.707811 0.699898 0.691919 0.684026 0.676357 0.669038 0.662181 0.655888 0.650244 0.645326 0.641195 0.637901 0.635479 0.633955 0.633339 0.63363 0.634814 0.636864 0.63974 0.643389 0.647748 0.652738 0.658269 0.664237 0.670528 0.677011 0.683547 0.68998 0.696145 0.70157 0.705956 0.709384 0.711937 0.713693 0.714732 0.715133 0.714972 0.714325 0.713268 0.711875 0.71022 0.708373 0.706408 0.704393 0.702399 0.700494 0.698745 0.697218 0.695979 0.695092 0.694622 0.694629 0.695177 0.696324 0.698132 0.700658 0.70396 0.708095 0.713118 0.719084 0.726047 0.734091 0.743062 0.752669 0.762639 0.772722 0.782686 0.792322 0.801438 0.809865 0.817451 0.824068 0.829606 0.833975 0.837106 0.83895 0.839478 0.838682 0.836573 0.833183 0.828565 0.822789 0.81595 0.808159 0.79955 0.790275 0.780508 0.770442 0.760292 0.750291 0.740693 0.731772 0.723825 0.716816 0.710513 0.704922 0.700045 0.695877 0.692412 0.689634 0.687527 0.686066 0.685224 0.684968 0.68526 0.686057 0.687312 0.688973 0.690981 0.693274 0.695786 0.698444 0.701171 0.703885 0.706499 0.708923 0.711058 0.712805 0.714055 0.714698 0.714619 0.713695 0.7118 0.708805 0.704572 0.699711 0.69494 0.690288 0.68578 0.681436 0.677273 0.673306 0.669545 0.665997 0.662666 0.659551 0.65665 0.653956 0.651459 0.649145 0.646998 0.644996 0.643116 0.641332 0.639611 0.637919 0.63622 0.634472 0.632631 0.630648 0.628472 0.626049 0.62332 0.620223 0.616694 0.612664 0.60806 0.603539 0.599754 0.596625 0.594078 0.59204 0.59044 0.589211 0.58829 0.587615 0.587128 0.586772 0.586495 0.586246 0.58598 0.585651 0.585218 0.584643 0.583889 0.582924 0.581717 0.580242 0.578474 0.576392 0.573977 0.571212 0.568086 0.564587 0.560709 0.556447 0.5518 0.546769 0.541358 0.535726 0.530044 0.524336 0.518621 0.512918 0.507242 0.501607 0.496025 0.490505 0.485054 0.479678 0.474379 0.469158 0.464014 0.458942 0.453938 0.448993 0.444097 0.439237 0.4344 0.429568 0.424722 0.419843 0.414905 0.409885 0.404754 0.399482 0.394039 0.388389 0.382496 0.376323
0.65012 0.658149 0.666552 0.675205 0.683989 0.692795 0.701521 0.71007 0.718357 0.726299 0.733824 0.740866 0.747367 0.753276 0.75855 0.763152 0.767054 0.770234 0.772679 0.774381 0.775342 0.77557 0.77508 0.773896 0.772047 0.769571 0.766514 0.762927 0.758872 0.754414 0.749629 0.744599 0.739413 0.733733 0.727291 0.720279 0.71288 0.705261 0.697579 0.689978 0.68259 0.675537 0.668925 0.662851 0.6574 0.652642 0.648637 0.645434 0.643068 0.641562 0.640928 0.641164 0.642259 0.644187 0.646912 0.650383 0.654541 0.659312 0.66461 0.670338 0.676387 0.682635 0.688948 0.69518 0.701173 0.706438 0.710653 0.713903 0.716271 0.71784 0.718691 0.718905 0.71856 0.717735 0.716506 0.714948 0.713137 0.711145 0.709045 0.706907 0.704803 0.702799 0.700964 0.699364 0.698065 0.697131 0.696624 0.696606 0.697138 0.69828 0.70009 0.702624 0.70594 0.710092 0.715134 0.721118 0.728096 0.736145 0.745105 0.75469 0.764634 0.77469 0.784631 0.79425 0.803359 0.811791 0.819399 0.826055 0.83165 0.836096 0.839325 0.841289 0.841959 0.841325 0.839399 0.836212 0.831814 0.826275 0.819686 0.812157 0.803817 0.794817 0.785325 0.775531 0.765645 0.755895 0.74653 0.737819 0.73005 0.723216 0.71711 0.711733 0.707078 0.703139 0.699902 0.697348 0.695456 0.694199 0.693545 0.693458 0.693898 0.694821 0.696176 0.69791 0.699965 0.702277 0.70478 0.707401 0.710064 0.712689 0.715189 0.717474 0.719451 0.721021 0.722079 0.722519 0.722227 0.721087 0.718977 0.715771 0.71134 0.706292 0.701347 0.696532 0.691867 0.687374 0.683067 0.678959 0.675059 0.671373 0.667904 0.664651 0.661609 0.658772 0.656127 0.653661 0.651356 0.649191 0.647142 0.645181 0.643276 0.641395 0.639498 0.637545 0.635491 0.633289 0.630887 0.628231 0.625262 0.621921 0.618141 0.613856 0.608993 0.604221 0.600203 0.596861 0.59412 0.591906 0.590152 0.588789 0.587754 0.586985 0.586423 0.586012 0.585699 0.585434 0.585168 0.584857 0.584458 0.583931 0.583241 0.582352 0.581233 0.579856 0.578194 0.576225 0.573928 0.571286 0.568282 0.564906 0.561147 0.557 0.552459 0.547524 0.542195 0.536619 0.530956 0.525235 0.51948 0.513715 0.507961 0.502233 0.496549 0.490922 0.485361 0.479875 0.474469 0.469147 0.463909 0.458754 0.453677 0.448672 0.44373 0.438839 0.433985 0.429152 0.42432 0.41947 0.414575 0.409611 0.404549 0.399358 0.394003 0.388449 0.382658 0.376588
0.644751 0.652802 0.661227 0.669907 0.678729 0.68759 0.69639 0.705037 0.713446 0.721541 0.729249 0.736506 0.743255 0.749445 0.755033 0.759982 0.764261 0.767847 0.770724 0.772883 0.774321 0.775041 0.775056 0.774383 0.773046 0.771077 0.768515 0.765404 0.761798 0.757754 0.753339 0.748625 0.743692 0.73825 0.732081 0.725368 0.718282 0.710983 0.70362 0.69633 0.689239 0.682461 0.676099 0.670246 0.66498 0.660372 0.656477 0.653344 0.651005 0.649485 0.648795 0.648936 0.649896 0.651654 0.654175 0.657415 0.661316 0.665811 0.670821 0.676255 0.682011 0.687974 0.694021 0.700014 0.705807 0.710889 0.714912 0.717965 0.720134 0.721504 0.722159 0.72218 0.721649 0.720644 0.719245 0.717528 0.715569 0.713442 0.711219 0.708972 0.706772 0.704686 0.702783 0.701128 0.699786 0.698821 0.698295 0.698268 0.6988 0.699948 0.70177 0.70432 0.707653 0.711822 0.716877 0.722868 0.729845 0.737874 0.746795 0.756327 0.766209 0.776201 0.786079 0.795641 0.804704 0.813103 0.820694 0.827351 0.832969 0.837461 0.84076 0.842818 0.843607 0.843118 0.841361 0.838366 0.834181 0.828877 0.82254 0.815277 0.807217 0.798503 0.789303 0.7798 0.770199 0.760723 0.751616 0.743139 0.735575 0.728943 0.723062 0.717927 0.713526 0.709845 0.706865 0.704563 0.702912 0.701882 0.701437 0.701539 0.702144 0.703205 0.704671 0.706486 0.708592 0.710924 0.713415 0.715995 0.718586 0.72111 0.723483 0.725617 0.727419 0.728795 0.729645 0.729863 0.729343 0.727972 0.725634 0.722208 0.717571 0.712337 0.707225 0.702257 0.697456 0.692836 0.688414 0.684198 0.680196 0.676413 0.672849 0.669501 0.666365 0.66343 0.660685 0.658115 0.6557 0.653418 0.651245 0.649152 0.647106 0.645074 0.643016 0.640891 0.638655 0.636259 0.633652 0.630779 0.627583 0.624003 0.619973 0.615428 0.610294 0.605254 0.600981 0.5974 0.594437 0.592018 0.590076 0.588544 0.587358 0.586456 0.585781 0.585275 0.584886 0.584563 0.584257 0.583923 0.583518 0.583001 0.582335 0.581485 0.580418 0.579104 0.577515 0.575628 0.57342 0.570871 0.567965 0.564688 0.561027 0.556974 0.552522 0.547668 0.54241 0.536879 0.531231 0.525498 0.51971 0.513894 0.508077 0.502279 0.496519 0.490815 0.485179 0.479623 0.474155 0.46878 0.463501 0.458318 0.453227 0.448223 0.443297 0.438439 0.433633 0.428864 0.424112 0.419355 0.414567 0.409721 0.404785 0.399727 0.394511 0.389097 0.383444 0.377508
0.639822 0.647869 0.656286 0.66496 0.673786 0.682663 0.691498 0.700203 0.708698 0.716908 0.724764 0.732204 0.739171 0.745615 0.751494 0.756769 0.76141 0.765391 0.768695 0.771308 0.773224 0.774444 0.774973 0.774825 0.774018 0.772577 0.770533 0.767925 0.764796 0.761195 0.757179 0.752811 0.74816 0.742985 0.737117 0.730729 0.723981 0.717025 0.710001 0.703039 0.696257 0.689763 0.683655 0.678021 0.672936 0.668466 0.664666 0.661582 0.659246 0.657682 0.656902 0.656908 0.657692 0.659234 0.661505 0.664463 0.668058 0.672227 0.676898 0.681988 0.687403 0.693039 0.69878 0.704502 0.710067 0.714944 0.718759 0.721601 0.72356 0.724724 0.725177 0.725004 0.724287 0.723108 0.721547 0.71968 0.717585 0.715336 0.713006 0.710667 0.70839 0.706242 0.704291 0.702602 0.701239 0.700264 0.699738 0.69972 0.700268 0.701437 0.703283 0.705858 0.709213 0.713398 0.718462 0.72445 0.731409 0.739397 0.748251 0.757699 0.767487 0.777377 0.787155 0.796621 0.805598 0.813925 0.821461 0.828084 0.833691 0.838196 0.841535 0.843661 0.844545 0.84418 0.842575 0.839759 0.83578 0.830705 0.824618 0.817625 0.809848 0.801431 0.792533 0.783336 0.774037 0.764855 0.756027 0.747807 0.740471 0.734064 0.728435 0.723568 0.719446 0.716049 0.713351 0.711324 0.709937 0.709155 0.708937 0.709243 0.710026 0.711235 0.712819 0.71472 0.716878 0.719229 0.721706 0.724237 0.726748 0.729161 0.731394 0.733361 0.734975 0.736142 0.736766 0.736748 0.735985 0.73437 0.731792 0.728138 0.72329 0.717871 0.712598 0.707492 0.702571 0.69785 0.693338 0.689045 0.684976 0.681132 0.677512 0.674111 0.670922 0.667934 0.665134 0.662503 0.660022 0.657667 0.655412 0.653227 0.651079 0.648932 0.646747 0.644481 0.64209 0.639524 0.636732 0.633659 0.630246 0.626432 0.622154 0.617343 0.611929 0.606604 0.602059 0.598218 0.595007 0.592357 0.590199 0.588467 0.587098 0.586031 0.585208 0.584573 0.584072 0.583656 0.583274 0.582883 0.582437 0.581896 0.581221 0.580378 0.579331 0.578049 0.576506 0.574673 0.572527 0.570048 0.567217 0.564016 0.560434 0.556458 0.552079 0.547291 0.542091 0.536598 0.530959 0.525214 0.519398 0.513542 0.507676 0.501827 0.496016 0.490263 0.484586 0.478998 0.473508 0.468125 0.462852 0.457691 0.452639 0.447692 0.442841 0.438074 0.433377 0.428733 0.42412 0.419516 0.414892 0.410219 0.405463 0.400588 0.395555 0.390322 0.384842 0.379066
0.635416 0.643436 0.651817 0.660453 0.669246 0.678103 0.686935 0.69566 0.704201 0.712488 0.720454 0.728041 0.735193 0.741862 0.748004 0.753583 0.758565 0.762926 0.766643 0.769701 0.772092 0.773811 0.774859 0.775243 0.774977 0.774078 0.772571 0.770485 0.767854 0.76472 0.761129 0.757133 0.752789 0.747906 0.742364 0.736325 0.729939 0.723347 0.716679 0.710059 0.703596 0.697394 0.691543 0.686127 0.681217 0.676876 0.673156 0.670102 0.667745 0.666109 0.665208 0.665045 0.665615 0.666901 0.668878 0.67151 0.674752 0.678549 0.682836 0.687538 0.692571 0.69784 0.703242 0.708662 0.713976 0.718631 0.722222 0.724843 0.726584 0.727537 0.727788 0.727423 0.726527 0.725182 0.723469 0.721466 0.71925 0.716897 0.714479 0.71207 0.709737 0.70755 0.705575 0.703875 0.702514 0.701552 0.701048 0.701059 0.701641 0.702848 0.704731 0.707339 0.710722 0.714926 0.719994 0.725971 0.732897 0.740822 0.749584 0.758919 0.768578 0.778332 0.787972 0.797306 0.806159 0.814376 0.82182 0.828372 0.833933 0.838419 0.841768 0.843934 0.84489 0.844627 0.843156 0.840504 0.836719 0.831864 0.826023 0.819297 0.811807 0.803691 0.795105 0.786224 0.777242 0.76837 0.759838 0.751894 0.744806 0.738647 0.733291 0.728715 0.724895 0.721803 0.719409 0.717677 0.716572 0.716053 0.716078 0.716599 0.717569 0.718935 0.720641 0.72263 0.72484 0.727207 0.729664 0.73214 0.734562 0.736853 0.738934 0.740722 0.742132 0.743075 0.74346 0.743191 0.742172 0.740301 0.737475 0.733586 0.728525 0.722923 0.717497 0.712266 0.707243 0.702441 0.697866 0.693525 0.68942 0.685549 0.681909 0.678493 0.675291 0.67229 0.669474 0.666823 0.664316 0.661928 0.659629 0.657389 0.655174 0.652946 0.650665 0.648288 0.645767 0.643053 0.640094 0.636835 0.633215 0.629175 0.624649 0.619569 0.613864 0.608243 0.603409 0.599289 0.595811 0.592907 0.590508 0.58855 0.586971 0.585711 0.584711 0.583917 0.583276 0.582736 0.58225 0.58177 0.581254 0.58066 0.579949 0.579084 0.57803 0.576756 0.575232 0.573429 0.571324 0.568893 0.566116 0.562975 0.559453 0.555537 0.551217 0.546482 0.541328 0.535862 0.530229 0.524472 0.518631 0.512744 0.506844 0.50096 0.495119 0.489345 0.483656 0.478068 0.472594 0.467244 0.462021 0.456929 0.451965 0.447125 0.442401 0.437779 0.433246 0.428781 0.424362 0.419964 0.415557 0.411107 0.406579 0.401932 0.397124 0.392107 0.38683 0.38124
0.631603 0.639575 0.647893 0.656461 0.665188 0.673987 0.682778 0.691483 0.700031 0.708356 0.716395 0.724091 0.731393 0.738253 0.744629 0.750483 0.755784 0.760502 0.764615 0.768106 0.770961 0.773172 0.774737 0.775655 0.775935 0.775586 0.774627 0.773076 0.770962 0.768314 0.765168 0.761565 0.757551 0.752983 0.747791 0.742122 0.736117 0.729906 0.723611 0.717345 0.711212 0.705306 0.699715 0.694515 0.689774 0.685552 0.681899 0.678857 0.676458 0.674726 0.673676 0.673313 0.673634 0.674628 0.676273 0.67854 0.681389 0.684773 0.688636 0.692911 0.697525 0.702393 0.707424 0.712516 0.71756 0.721977 0.725333 0.727724 0.729245 0.729986 0.730037 0.729487 0.72842 0.72692 0.725069 0.722946 0.720629 0.718193 0.71571 0.713253 0.710891 0.70869 0.706715 0.705031 0.703696 0.702772 0.702313 0.702376 0.703012 0.704273 0.706207 0.70886 0.712278 0.716502 0.721573 0.727529 0.734407 0.742249 0.750895 0.760087 0.769586 0.779171 0.788639 0.797803 0.806495 0.814565 0.821881 0.828327 0.833807 0.838242 0.84157 0.843748 0.844749 0.844567 0.843209 0.840705 0.837099 0.832454 0.826852 0.82039 0.813185 0.805372 0.797103 0.788546 0.779891 0.771341 0.76312 0.75547 0.748648 0.742755 0.73769 0.733425 0.729926 0.727158 0.725084 0.723663 0.722855 0.722612 0.72289 0.723636 0.7248 0.726326 0.728158 0.730235 0.732495 0.734874 0.737305 0.739718 0.742041 0.744199 0.746116 0.747712 0.748905 0.749611 0.749743 0.749212 0.747925 0.745789 0.742707 0.738579 0.733304 0.727522 0.721953 0.716609 0.711502 0.706639 0.702025 0.697663 0.693551 0.689685 0.686059 0.682662 0.679483 0.676505 0.67371 0.671076 0.66858 0.666193 0.663886 0.661626 0.659376 0.657097 0.654748 0.652284 0.649657 0.646816 0.643707 0.640275 0.63646 0.632198 0.627426 0.622075 0.616073 0.610143 0.605007 0.600594 0.596832 0.593654 0.590994 0.588789 0.586978 0.585501 0.584301 0.583324 0.582517 0.581829 0.581212 0.580621 0.58001 0.579339 0.578567 0.577658 0.576575 0.575286 0.57376 0.571969 0.569884 0.567483 0.564743 0.561644 0.558167 0.554298 0.550022 0.545329 0.540208 0.534761 0.529128 0.523358 0.517496 0.511585 0.505661 0.499759 0.493908 0.488134 0.48246 0.476904 0.471479 0.466197 0.461064 0.456082 0.45125 0.446564 0.442013 0.437585 0.433263 0.429027 0.424851 0.420707 0.416563 0.412383 0.408125 0.403747 0.399199 0.39443 0.389385 0.384003
